-0.4824068	-0.32573587	4.2815693e-05	
0.20783338	0.09471362	0.62519884	
-0.25540248	0.28949326	0.3545306	
-0.4723889	-0.36014056	-0.05964144	
-0.90275174	-0.4699811	-0.59317106	
-0.4570822	-0.335798	-0.027979359	
0.60440373	-0.24076474	0.18209988	
-0.48805088	-0.32547677	-0.006394092	
-0.29122746	-0.35302132	-0.8919273	
-0.2722344	0.15621579	-0.69021314	
-0.48029625	-0.32411295	-0.007821796	
0.0009772442	-0.06395372	-0.7466422	
0.8858642	0.3488016	0.12506282	
-0.73402125	-0.517433	-0.11632025	
-0.3777035	-0.41274828	-0.14903253	
0.49236363	0.056599997	0.5577336	
0.38449138	0.11488886	0.5570774	
0.21367292	-0.368697	-0.20827527	
-0.4864499	-0.33841872	-0.02154027	
-0.8508703	-0.5452216	-0.19646555	
-0.78649664	-0.54197884	-0.13602261	
-0.36459562	-0.25575188	0.1072444	
-0.24749805	-0.2372803	0.56638515	
-0.17294633	-0.21513978	-0.8795406	
-0.34201765	-0.09672966	-0.84647536	
-0.35310823	0.2782666	0.063443966	
-0.8780197	-0.09051484	-0.033994295	
-0.4396587	0.045437463	0.492717	
-0.7155688	0.021578863	0.116212584	
0.29189652	0.32988602	-0.34730262	
-0.77337855	-0.019576475	0.11077501	
0.118923046	0.15555003	-0.51638925	
-0.34561694	0.30966341	-0.3829516	
0.94848764	0.11918139	-0.19436589	
-0.2963856	-0.3614875	-0.09345628	
-0.34581184	-0.21844374	0.31193143	
-0.5544499	-0.33643904	0.01912719	
-0.056803994	-0.3128633	0.36086446	
0.55439276	-0.069111876	-0.2512605	
-0.36311078	-0.25797296	0.10387896	
-0.08350783	-0.18384989	-0.84359074	
-0.4257869	-0.2444829	0.14363897	
-0.015830819	0.28464207	0.44920728	
0.086369485	0.139807	-0.54650307	
0.8901185	0.15914541	0.12914449	
-0.21568447	-0.36481914	-0.084277354	
-1.0012231	-0.39476338	-0.17383677	
0.2607187	-0.0069374144	-0.37776577	
-0.40814325	-0.27406883	0.062147427	
0.15883881	0.4758231	-0.16428818	
-0.8806236	-0.33026516	0.18812723	
-0.3339773	-0.63274443	-0.45943165	
0.94374126	0.09367408	-0.011840465	
-0.08293688	-0.5470134	-0.56126773	
-0.4879766	-0.33908904	-0.02826804	
0.8555266	0.22569108	-0.28300765	
-0.5089232	-0.32419604	0.014278738	
0.11321451	-0.43416837	-0.12134194	
-0.6428504	-0.42190772	-0.037707098	
0.05422157	0.42264393	0.17027065	
0.24802954	-0.39222223	0.23417962	
0.23823187	-0.40917775	0.08315848	
-0.9209934	-0.29461014	-0.52465665	
-0.54541874	0.17351109	-0.13084966	
0.2343362	0.12540954	0.5946969	
0.7876283	-0.10531425	0.06740013	
-0.36847275	0.2641954	0.18325308	
0.32755822	0.15945631	0.5383785	
-0.74200743	-0.15584907	-0.66604877	
0.25853288	0.028016284	-0.39942867	
0.13571376	-0.42747825	-0.17869425	
-0.271424	-0.22999895	0.36127007	
-0.9519211	-0.24542515	-0.010588689	
-0.31948453	-0.63837194	-0.58768463	
-0.40997377	-0.28090757	0.052697595	
0.69448364	-0.09130084	0.2988427	
-0.5507991	0.031353414	0.3889063	
-0.194388	-0.12834013	-0.8561883	
-0.8882356	-0.5432484	-0.24502087	
-0.12441525	0.44232598	-0.3286018	
-0.43418187	-0.2752617	0.076098874	
-0.8698685	-0.3175452	-0.6324588	
0.11502681	0.44111082	-0.31176612	
0.1800558	-0.09911013	-0.46271437	
-0.4280052	-0.2721902	0.084821545	
-0.44529402	-0.54851454	-0.84660316	
0.13581964	-0.34535274	-0.3947819	
-0.6855009	-0.22369061	0.3002255	
0.050572187	0.35564277	0.36204624	
-0.41960722	-0.44687176	-0.1837456	
0.23245108	-0.39286292	-0.11542146	
-0.3517809	-0.3636685	-0.08184349	
-0.7074667	-0.25126937	0.2857002	
0.26686993	0.47221667	0.031097313	
-0.48679736	0.0010688566	-0.7480861	
0.008486234	0.4535409	-0.07269287	
0.16742346	0.41142273	0.25271025	
-0.5122701	-0.27640256	0.120049655	
-0.43345785	-0.26821125	0.090633094	
0.6790107	-0.047951423	0.34737346	
-0.8153052	-0.16591726	0.26228422	
0.1304496	0.3069755	-0.45360035	
-0.47966242	-0.32018334	-0.0036160657	
0.5918079	0.31262687	0.287825	
0.19629093	-0.33514762	0.37310016	
0.59843075	-0.2521286	0.10254605	
0.118903294	-0.3900745	-0.32094598	
-0.27514648	-0.61315817	-0.41193372	
-0.47698793	-0.33046055	-0.015761366	
-0.4550377	-0.3339088	-0.025518412	
-0.55472445	-0.66725695	-0.5782671	
-0.286386	0.39239097	-0.18239143	
0.14207181	0.46519667	-0.0030162204	
-0.39533478	-0.31295252	-0.004084524	
-0.056866076	-0.54893124	-0.43791378	
-0.60719645	-0.6575228	-0.7053698	
-0.4797606	-0.32094866	0.0020553097	
0.49988317	0.1551882	-0.31809586	
0.9295536	0.040944554	-0.0984174	
-0.5101929	-0.3268266	0.009665027	
0.1804712	-0.3745805	-0.25350082	
-0.27759793	0.36362937	-0.0006200895	
-0.45010328	-0.3371123	-0.029136855	
-0.18318205	0.41374356	-0.042657036	
-0.42777124	-0.66498595	-0.54952914	
0.19816998	-0.026442297	-0.45002416	
-0.24906951	-0.2495031	0.17441683	
-0.41581586	-0.28325576	0.050003093	
-0.4348122	-0.26691288	0.08996149	
-0.33097672	-0.50466985	-0.25281447	
-0.03200458	0.41437072	0.11708082	
0.66469294	-0.19211617	0.19991472	
0.32444972	0.47779366	0.0163451	
-0.43901837	-0.30485833	0.013047859	
0.18456553	-0.40207916	-0.076280534	
-0.61782277	-0.49875626	-0.16394062	
-0.44353864	-0.3288666	-0.027233176	
0.13000822	-0.39716694	-0.3090033	
0.051306844	-0.47649017	-0.2243852	
-0.52755004	-0.27854127	0.1277298	
0.072605684	0.022395466	0.70563674	
0.2935334	0.4843862	-0.11800964	
-0.66870636	-0.61620533	-0.33163854	
-0.8672574	-0.4581219	0.089649834	
-0.16104811	-0.27480772	0.16669333	
0.16738373	-0.231081	0.67772627	
-0.10721588	-0.2584585	0.6845616	
0.1246264	0.40553606	-0.38921756	
-0.5839979	-0.0634056	-0.7390822	
0.20308605	0.46274737	0.024899563	
0.2760051	0.038894266	0.66078043	
0.026814811	-0.4801622	-0.42289668	
-0.40494666	-0.2752233	0.0697893	
0.17979915	0.3947638	-0.36193082	
-0.4369052	-0.30035836	0.018549785	
-0.29837713	0.29784065	-0.48557812	
0.05201491	-0.4844211	-0.25247568	
-1.0047501	-0.4352905	-0.23847896	
-0.039547205	-0.4178955	-0.80555236	
0.080003075	-0.42664486	-0.42328936	
0.44772333	0.33281326	-0.28526592	
-0.45514962	-0.33426416	-0.028834544	
-0.76490676	-0.119947255	0.27218556	
0.971174	0.18085752	-0.18922356	
-0.29925022	-0.6253694	-0.67555606	
-0.79677725	-0.12821785	-0.57483125	
-0.30135074	-0.22687794	0.4547756	
0.09057857	-0.3297043	-0.7021419	
-0.03842846	0.4184156	0.045326963	
-0.57786345	0.1038627	-0.5136547	
-0.20606193	-0.59327054	-0.3642573	
-0.41698113	-0.2578164	0.11019571	
-0.48091972	-0.32027614	0.0012211464	
0.5117276	0.3027101	0.32269067	
-0.7855946	-0.37114903	0.18014136	
-0.7358518	0.041501194	-0.03654124	
-0.84343046	-0.103620656	0.15797833	
0.5384072	0.27191642	0.3378495	
0.8547302	-0.009152763	0.06644739	
0.16158539	-0.40440595	-0.11991854	
-0.8172758	-0.1441498	0.23633596	
0.026422843	-0.102584645	-0.7496308	
-0.6777843	-0.18494764	-0.74439764	
-0.5436404	-0.2956643	0.11077325	
0.36026153	-0.3325774	-0.11689542	
0.6561991	-0.11242801	-0.20184177	
0.9585327	0.23555145	-0.2069891	
-0.2160561	-0.56053424	-0.31176347	
0.7338599	-0.13146776	0.15032695	
0.49849188	-0.2196219	-0.15442163	
0.5472362	-0.17594558	0.39393628	
-0.38651708	0.31347507	-0.27540115	
-0.40995547	-0.27293468	0.0656566	
-0.13336709	-0.5901517	-0.44700426	
-0.43295062	-0.2677424	0.08452048	
-0.51443565	-0.32319492	0.018900968	
-0.44339976	-0.3050108	0.019785523	
-0.4307461	0.08384046	-0.69284326	
-0.7158332	-0.19653575	-0.7243062	
0.19236568	-0.36698264	0.3117852	
-0.63833964	-0.41751066	-0.032018118	
-0.03709268	-0.21956451	-0.83313966	
0.54342234	0.4300462	0.1980466	
0.18858865	-0.3685284	-0.24628486	
0.70144814	0.10915144	-0.3239522	
-0.47265926	-0.28413227	0.071095735	
0.93505245	0.35918725	-0.18014975	
0.6720116	0.51356083	-0.09884331	
0.7354317	-0.13494757	-0.08980833	
-0.42651522	0.21376187	0.33653075	
-0.29647127	0.36136192	-0.34072754	
0.17307788	0.44343564	-0.299845	
-0.47502267	0.13513067	-0.58535016	
-0.112115785	-0.41666362	-0.118132025	
-0.6430301	-0.42170358	-0.03504758	
-0.13997258	-0.05240334	0.7003159	
0.27215806	-0.18295723	-0.3091073	
0.8935155	0.101893716	0.10844147	
0.61428994	0.51175535	-0.082756214	
-0.79955256	-0.036315173	-0.34319913	
0.109457314	-0.38108188	-0.43383268	
-0.314558	-0.2073893	0.52343273	
0.46180612	0.28829327	0.3609988	
-0.757269	-0.04294897	-0.5080993	
-0.43693912	-0.271621	0.0836509	
-0.4538824	-0.49031946	-0.21943766	
-0.84837556	-0.5302413	-0.6099297	
-0.5343559	-0.300565	-0.8594088	
0.66007257	-0.20134977	-0.009987131	
-0.43328273	-0.2678817	0.08427381	
0.28291678	-0.2736029	-0.24078968	
0.50335664	-0.1929219	0.42284656	
-0.01843971	0.40051612	-0.45336556	
-0.04132359	-0.0641505	0.73471725	
-0.904673	-0.2738484	0.14366828	
-0.49633142	-0.3419093	-0.024209611	
0.13794796	-0.34726346	-0.39504224	
0.047802143	-0.48330247	-0.26106167	
-0.24559425	0.391577	-0.30562627	
0.4692985	0.25640747	-0.31210983	
-0.10314262	-0.5723369	-0.46972144	
0.31399345	-0.33079153	0.30655247	
0.84892017	0.09765981	0.15507534	
-0.47955287	-0.32683447	-0.008689687	
-0.44476008	0.18688202	-0.518931	
-0.36568728	-0.2583438	0.10500111	
-0.47333124	-0.289419	0.059181225	
-0.2938133	0.3188634	0.15630856	
-0.7261825	0.030045912	-0.38103533	
0.00019275397	-0.2753485	0.6706138	
-0.53758836	-0.30505237	0.06470235	
-0.72378206	0.020314123	-0.41880333	
-0.087779954	-0.4971385	-0.74851185	
-0.5137011	-0.3253875	0.014647253	
-0.42651814	0.23391876	0.252984	
-0.40520388	-0.27342632	0.06529279	
-0.37603182	0.34523314	-0.12906463	
-0.3557383	-0.22685887	0.23387115	
-0.4938935	-0.34063852	-0.020301472	
0.07299268	-0.35498947	0.41147643	
0.67600286	0.21559526	-0.3124347	
0.15201263	-0.38141948	-0.2945835	
-0.41267174	-0.27785516	0.061281443	
-0.41231638	-0.2732574	0.0686674	
0.677018	-0.18511748	0.15801679	
-0.24262011	0.22931474	-0.61871827	
-0.71471965	-0.018871874	0.2108608	
-0.6973658	-0.18272507	0.31328171	
0.9765965	0.18197623	0.015465131	
0.74694103	0.11875999	0.26340112	
0.38731956	0.082111984	-0.32562196	
-0.01020886	-0.50697064	-0.2353782	
0.6214963	0.055459384	-0.31495196	
0.016877335	0.42465377	0.087338194	
-0.41914713	0.23109342	0.2193452	
0.31804985	-0.3299587	-0.16623643	
0.76770365	0.23546645	0.22143224	
0.03790813	-0.40022913	0.07827864	
-0.40462002	-0.2526618	0.1190675	
-0.48846012	-0.33887112	-0.026833411	
-0.5591717	0.10071732	0.09996556	
0.23962379	0.46942738	0.002510056	
-0.011938833	-0.5257065	-0.38452736	
0.263412	0.3699425	0.3263384	
-0.8226807	-0.044646647	-0.23812418	
-0.97031105	-0.30347613	-0.36093578	
-0.5849567	0.13014993	-0.42277455	
0.87727785	0.21590832	0.14716816	
-0.7809477	-0.50504017	-0.06255908	
-0.70709044	0.050226018	-0.3639705	
-0.47300726	-0.32205552	-0.0009873435	
0.05482006	0.02540864	-0.6542076	
0.07341998	-0.14517076	-0.7076182	
0.49869317	-0.31448793	0.12941647	
-0.050607644	-0.29085758	0.6325072	
-0.37120563	-0.37204713	-0.106806375	
-0.49029797	0.14484581	0.09248304	
0.066115126	0.16562307	-0.55799633	
0.3168523	-0.03970573	0.70495105	
-0.16402602	-0.540484	-0.2787255	
-0.4145373	0.31173176	-0.18805504	
-0.47852862	-0.3244607	-0.001579281	
0.6955985	0.050179332	-0.31630114	
0.012815751	0.3644308	-0.4780321	
-0.13938034	0.40309942	0.01458372	
-0.43345124	-0.26746735	0.09789376	
-0.5182662	-0.206516	0.32276213	
-0.55702573	-0.2981895	0.113224596	
-0.5417867	-0.2637133	0.16562977	
0.35623437	0.12084688	-0.34088856	
-0.47441167	0.16615719	0.311152	
0.063768655	0.25843573	-0.5306853	
-0.48410538	-0.32186455	0.001937896	
0.17046496	-0.052835554	-0.4901431	
-0.5375757	-0.33340922	0.012848467	
0.98508155	0.27889553	0.033680327	
-0.5103197	-0.5043511	-0.21181992	
-0.9963064	-0.39593932	-0.3851983	
0.02717388	-0.34768105	0.41603494	
-0.49647307	-0.342009	-0.023850955	
0.77220464	0.4590354	0.07711565	
-0.50797015	-0.41945636	-0.11956246	
0.10176816	0.38757247	0.30520207	
0.9466321	0.41627806	-0.01502962	
-0.5518286	-0.3390212	0.014563836	
-0.23939785	-0.6097949	-0.5593212	
-0.64579475	-0.4144044	-0.034148417	
-0.5244025	-0.1810202	0.36686093	
-0.39985448	-0.58220863	-0.32485166	
-0.5810512	-0.07129155	0.40507197	
0.6467698	-0.17735332	0.28406584	
-0.10671193	-0.2444008	-0.86914456	
-0.8840749	-0.110256925	0.024479019	
-0.40241024	-0.27606562	0.06279883	
0.31821722	-0.3626161	-0.100305066	
-0.022829164	0.02616959	-0.7177218	
-0.43880147	-0.3044041	0.02074585	
-0.40137815	-0.2525289	0.11833127	
-0.48858622	-0.33766633	-0.02716276	
-0.06912765	0.4048069	0.07912504	
-0.37734514	-0.38442284	-0.11584248	
-0.36114824	-0.25279033	0.108792745	
0.13331057	-0.4263665	-0.1814462	
0.14951956	-0.42624062	-0.03798643	
0.65677947	0.11096391	0.36338434	
0.46917447	-0.11385228	0.59969413	
-0.42072386	-0.6636734	-0.694713	
-0.63862777	0.035740122	0.18616785	
-0.44450232	0.22956711	-0.42166448	
0.15083413	0.2817345	-0.44635087	
0.28426415	-0.37936914	0.2058421	
0.08075861	-0.34063733	0.45860097	
-0.89606845	-0.15192005	0.06630971	
-0.44227588	-0.65882844	-0.46133047	
0.0780259	0.40580255	0.25744292	
0.7399056	-0.03337118	-0.25745174	
-0.51680994	-0.32524997	0.009774588	
0.25528798	0.103768826	-0.3908711	
0.17897333	-0.38376385	-0.2179383	
0.71299607	-0.14041631	-0.12588379	
0.36712426	0.3723601	0.3144712	
-0.664263	-0.43117073	-0.040421024	
-0.43408918	-0.531216	-0.26318833	
0.8724899	-0.027195245	-0.04019484	
-0.7690695	-0.13573375	-0.6195404	
0.3150428	0.19282216	0.5160122	
-0.49171937	-0.3424072	-0.031519175	
-0.7605247	-0.5664233	-0.2045018	
-0.6550276	-0.11369632	-0.725984	
-0.51086736	-0.32359415	0.013886232	
-0.4884478	-0.3359763	-0.029217977	
-0.38220614	0.041607626	0.54107237	
-0.47407728	-0.32312095	-0.0010534562	
0.72454995	-0.15589723	-0.03747156	
-0.042542122	0.1311718	0.61374354	
0.49277502	0.32240212	-0.28294507	
-0.44929066	-0.32857215	-0.02690265	
-0.2388063	-0.40705892	-0.8823955	
0.08291576	-0.45119378	-0.27714697	
-0.2389753	-0.24386147	0.2272745	
0.49442893	-0.30955186	0.21102013	
0.6810098	-0.1462023	0.2444404	
0.3334949	-0.3816167	0.0415151	
-0.47770178	-0.36308092	-0.059423227	
0.5251076	0.4567526	-0.18632005	
-0.5312053	-0.34588897	0.0075511336	
-0.93116146	-0.18728301	-0.23168018	
0.22563547	-0.0063808933	-0.40717798	
-0.43600196	-0.29964572	0.027526818	
-0.65524673	-0.4516918	-0.07411483	
-0.423477	-0.2475481	0.1398476	
-0.430022	-0.30379373	0.018526971	
0.4143704	0.48766518	0.014442928	
-0.40418705	-0.2730338	0.06571004	
-0.21000037	-0.425389	-0.16154084	
0.8542286	-0.0108672045	-0.21664903	
-0.45344108	0.2683953	-0.18795502	
-0.62470466	-0.36110634	0.05456864	
0.18892272	-0.066012576	0.7403104	
-0.8212242	-0.09620173	0.20252351	
0.32387173	-0.19877055	0.6519676	
0.056711245	0.44147545	0.030096464	
0.93779814	0.30547076	0.09053877	
-0.6200675	-0.10816384	0.3744253	
0.12371976	-0.38194826	-0.38764215	
-0.62718314	-0.45687333	-0.098060496	
-0.39965832	-0.25650346	0.1155541	
0.11486837	-0.32451177	-0.46627018	
-0.9577537	-0.23491752	-0.09943986	
-0.6225132	0.024567315	-0.60989094	
0.14306858	-0.33409026	-0.39513364	
-0.3655387	0.12804933	0.4980845	
-0.39254767	-0.59948796	-0.80643094	
0.10961272	-0.13949981	-0.67595094	
-0.29569125	-0.36817837	-0.100893654	
-0.4851698	-0.33780453	-0.026180819	
-0.07003288	-0.3205876	0.17163363	
-0.49793035	0.21170935	-0.14447999	
-0.12774827	0.13289271	-0.6971394	
-0.4581726	-0.3381697	-0.03696873	
-0.4857622	-0.32431555	-0.00233718	
0.046424307	-0.42884618	-0.5708741	
0.012258939	0.3918068	0.274988	
-0.010162778	-0.35146406	0.17471617	
-0.66198194	-0.04123495	-0.65548754	
-0.51245725	-0.32597977	0.0080790445	
0.13697414	0.46805015	-0.0504607	
-0.47883123	-0.36487654	-0.0618555	
-0.16759989	-0.27045643	0.43103677	
-0.483074	-0.3388577	-0.028396687	
-0.24069811	0.3774255	0.007899173	
-0.52360594	-0.30260623	0.061293513	
0.8119991	0.46077034	-0.1635279	
-0.4390343	0.124752276	0.4330372	
-0.48594645	0.10469886	-0.6294557	
0.3523672	0.46772492	0.05432508	
-0.17133263	-0.44781345	-0.8428483	
0.28378296	-0.045743953	-0.35259217	
-0.9641346	-0.3473278	-0.024621084	
0.33194575	0.27500302	-0.34137726	
-0.62704015	-0.44997182	-0.09353149	
-0.40738988	-0.2737918	0.06336732	
-0.5107685	-0.3252135	0.01377207	
0.15074474	-0.1958547	-0.5493135	
0.83703256	-0.05567193	0.002855271	
0.07758543	-0.3880054	-0.5682237	
0.5686133	0.36289817	-0.2519675	
-0.21258189	0.35022163	0.099810794	
0.17596632	-0.35156006	-0.29869366	
-0.4081611	-0.25611594	0.11778708	
0.57734567	0.48618513	0.048520006	
-0.3343193	-0.39281613	-0.12962532	
-0.9215671	-0.16464722	-0.17382017	
-0.47325215	-0.3235859	0.0018354328	
0.40523455	-0.16503766	-0.24468085	
-0.45483246	-0.33465064	-0.030153543	
-0.32974973	0.37572044	-0.12997937	
0.9019475	0.011452973	-0.15598583	
0.09498751	0.35950106	-0.44607145	
0.17389607	-0.24953523	0.61774695	
-0.07530835	0.062446315	0.6716347	
-0.69899714	-0.62872416	-0.43817195	
-0.5499303	-0.2993426	0.10335933	
0.5684258	0.49511743	-0.012152895	
-0.7859367	-0.42073557	0.13320819	
-0.34709454	-0.35078442	-0.074927896	
0.69631	0.015491072	0.33268738	
-0.39601627	-0.4280308	-0.8768553	
0.12427992	-0.35797915	-0.39708796	
-0.24386592	-0.4522475	-0.20163181	
-0.3737578	0.27563006	-0.02320522	
0.13469116	-0.38387716	-0.34785426	
0.46428367	-0.26794368	0.34251502	
-0.639335	0.12451686	-0.23709813	
-0.19786593	-0.5699674	-0.7215372	
-0.57827044	0.07747851	-0.5750948	
0.59684634	-0.19677986	0.3052284	
-0.64082867	-0.08318566	0.3394519	
-0.39631945	-0.24121471	0.15987967	
-0.4294123	-0.3023728	0.019619457	
0.06791432	0.27362818	0.46959037	
-0.48774374	-0.34014374	-0.026567787	
-0.45484245	0.23758803	-0.10746836	
-0.4644331	-0.2013717	0.3492164	
0.7363849	-0.15248035	0.024976399	
-0.25283086	-0.14916012	-0.87149996	
0.29149437	0.15115172	-0.37715888	
0.32399428	-0.2858945	-0.19711801	
-0.40833077	-0.27868646	0.061998874	
0.43344668	0.4949454	-0.06019114	
-0.6177539	-0.45567194	-0.10080908	
-0.16959524	0.3385358	0.3046625	
0.2529133	-0.3923557	-0.08322336	
-0.08619635	0.4169655	0.008208897	
-0.24495222	-0.25062287	0.5079528	
-0.48995858	-0.07923231	-0.8031581	
-0.65418226	0.09533875	-0.12066085	
0.643991	-0.18473533	-0.08021627	
0.16516362	0.45228443	0.06274439	
-0.07807417	-0.39293694	-0.057466462	
0.17455745	-0.096708804	-0.48459423	
-0.9125696	-0.16004077	0.00245931	
0.17862397	-0.34047872	-0.29808003	
-0.14467888	-0.30731532	-0.87030435	
-0.6609519	-0.45295995	-0.078448266	
-0.48424035	-0.237425	0.21026784	
0.4149362	-0.31809592	-0.067479074	
-0.6558098	-0.45184758	-0.06721461	
-0.6636585	-0.4525689	-0.079234496	
-0.5130381	-0.0073904768	0.4482901	
-0.49195498	-0.34952676	-0.03166463	
-0.5960679	-0.04692031	0.37905747	
-0.93675923	-0.28849545	0.09577797	
-0.5975758	0.00012230873	0.35087574	
-0.09784569	-0.0011224858	-0.775535	
-0.42969465	-0.27234173	0.077225626	
-0.49096438	-0.6606766	-0.48214525	
-0.040822998	-0.5317619	-0.5288701	
-0.48114264	-0.3612114	-0.05827345	
-0.14405844	-0.17088492	-0.8608235	
-0.42743003	-0.24787225	0.14439517	
0.14444782	-0.1391708	-0.5947572	
-0.3469474	0.27634197	0.2796886	
0.45716542	-0.07643478	-0.26563525	
0.5375954	-0.28759623	0.2159011	
0.34407395	-0.13859668	-0.28774562	
-0.7453869	-0.4494488	0.004633056	
-0.29290593	-0.29132646	0.035125777	
0.06879893	0.10744932	-0.5868552	
0.7954642	0.24930695	-0.29662237	
0.5311526	-0.21755356	0.34161317	
0.4305995	0.07840407	-0.31568938	
-0.41337323	-0.070341244	0.54586285	
0.056429297	0.3806253	0.3331827	
0.3161817	-0.04073591	-0.3345374	
-0.49196526	-0.34000254	-0.024012314	
0.5191767	0.2550791	-0.3078342	
-0.029322617	0.4424736	-0.3908726	
0.14477974	-0.37825948	-0.30169347	
-0.9538453	-0.49623623	-0.2431516	
-0.6375855	0.122424796	-0.24898237	
0.022635367	0.09449503	-0.63471043	
0.74063027	0.39069605	-0.24078286	
0.3081106	-0.38944823	0.12462857	
-0.09544091	0.30894068	-0.55088836	
-0.106915705	0.16105929	0.5751382	
-0.86838657	-0.49466974	-0.0084065385	
-0.6148743	-0.44127727	-0.086642236	
-0.46887302	-0.26648474	0.12277703	
-0.43020102	-0.26863438	0.08906807	
-0.64313346	-0.42379028	-0.041359797	
0.23232317	0.21282038	0.52046716	
-0.4334926	-0.24812457	0.14477485	
-0.7121601	0.0622948	-0.1141393	
0.041728944	-0.45858863	-0.101825364	
-0.6087451	0.059400868	0.16040437	
0.24250072	-0.3106438	-0.2510076	
0.14434867	-0.2542173	0.6321763	
0.6058079	0.060387082	0.44223964	
-0.7675172	-0.5904855	-0.6417557	
-0.54811335	-0.3368097	0.009513727	
-0.4841644	-0.36223838	-0.058782317	
-0.94549674	-0.3946195	-0.52677494	
-0.491966	-0.33708698	-0.023622505	
-0.4707875	-0.28968665	0.058226075	
0.15124114	0.11065444	0.6229702	
-0.35131496	-0.61364436	-0.39829117	
0.20662916	-0.28045768	0.48084748	
-0.81037	-0.08130211	-0.45247155	
-0.3690896	-0.64185005	-0.4558341	
-0.14315909	-0.4959392	-0.22353485	
-0.16200286	-0.4020173	-0.11726662	
0.23473746	-0.24123183	0.5700123	
0.5667272	-0.26597837	0.17969793	
-0.49307403	-0.3381464	-0.02200799	
0.2664238	-0.32451516	0.33766657	
-0.68069	0.051078953	0.036602393	
-0.47336447	-0.32020494	0.0011424124	
0.1039599	-0.0864644	-0.63776386	
-0.07972433	-0.3358596	0.06726134	
-0.64342123	-0.42434806	-0.039848313	
0.0016368926	0.45795918	-0.14737871	
0.31060383	-0.26643854	-0.23166794	
0.5995745	-0.16626956	-0.16441211	
0.13039224	-0.3304652	-0.43853188	
-0.18504952	0.40164644	-0.38780326	
-0.31835994	0.30142623	0.13807368	
0.31309742	-0.3089018	0.35593495	
0.11054124	-0.33777496	-0.5205815	
-0.6938456	-0.48317036	-0.083106294	
-0.5750659	0.08112021	0.16807821	
-0.5054506	-0.37352827	-0.8649127	
0.32759994	0.078513265	-0.35303682	
0.16018116	-0.40435523	-0.17701031	
0.788661	-0.10140638	0.05765231	
-0.48024732	0.17248061	0.18138179	
-0.40392542	0.23893994	-0.013769262	
-0.45765567	-0.3348151	-0.029465174	
-0.7936094	-0.112821594	0.23101318	
-0.48462856	-0.34104806	-0.024563272	
0.09454586	0.1900586	-0.5321479	
1.009198	0.2877888	-0.071948074	
0.62959945	-0.22535871	0.05004459	
-0.33886492	-0.31974807	-0.028915698	
-0.106082365	-0.28989995	0.35310715	
-0.4295836	-0.44422477	-0.17722218	
-0.45383686	0.26240703	-0.29617715	
-0.14245695	-0.5808684	-0.35670555	
0.21319279	0.069612235	0.64321506	
0.50422096	0.42879558	0.20778471	
-0.1094688	-0.30068484	0.49523237	
0.15420479	-0.3869092	0.2538399	
0.12619975	-0.42646676	-0.17635602	
-0.4855523	-0.32424626	0.00019571558	
0.5444619	0.4660833	0.11188863	
-0.7460376	-0.06756441	-0.5654244	
-0.87642574	-0.5532953	-0.3422116	
0.31173015	0.40066504	0.27463225	
-0.48568898	-0.25164106	0.1614559	
-0.06459868	0.38324744	0.25858635	
-0.6947023	0.07640138	-0.2592478	
0.56627935	-0.2625988	-0.013259977	
-0.008309092	-0.31364682	0.5605283	
-0.45581985	-0.33272168	-0.028958647	
-0.42229056	-0.24457279	0.14657754	
-0.6839956	-0.002205059	-0.5654401	
-0.5186072	-0.2510496	0.18458533	
-0.47210604	-0.46906316	-0.17774807	
0.3053968	-0.2887293	-0.20242655	
0.5164535	-0.24395481	0.33284846	
-0.6122994	-0.6373738	-0.36866432	
0.33768636	0.22311604	0.47876537	
-0.4286244	0.15521449	0.4073858	
-0.66535807	-0.4974798	-0.1312488	
-0.54254055	-0.33572072	0.014569033	
-0.4788473	-0.32278603	-0.0019517597	
-0.55909526	-0.12029972	0.40578532	
0.24667153	-0.39171267	-0.07057168	
-0.14165266	0.379842	0.0905913	
-0.1824026	-0.26531723	0.5964818	
0.97612166	0.3031116	-0.15660463	
0.045183912	0.07805109	-0.62837493	
0.22693169	0.05533799	-0.4242303	
-1.0044518	-0.36035305	-0.24374178	
-0.21099743	0.36100566	0.18660186	
-0.57475436	0.17260495	-0.23272917	
-0.8954029	-0.5194301	-0.14819217	
-0.42781132	-0.24893633	0.13450415	
-0.0021990687	-0.18879133	-0.8074312	
-0.03809636	-0.31274423	0.51860034	
0.17101482	-0.010195699	0.7162707	
0.34721377	0.30327702	0.39363468	
-0.6987443	-0.44128507	-0.7797102	
0.02253038	0.45704198	-0.31707594	
-0.6750272	-0.27740073	0.23270774	
-0.44544718	-0.25486487	-0.88129914	
0.5288557	-0.020063614	-0.2777983	
-0.65672827	-0.30735913	0.15999085	
-0.5012573	-0.40657538	-0.11508175	
-0.74603474	-0.48517185	-0.050225258	
-0.4441548	-0.3045277	0.017363366	
0.27706954	-0.27788898	-0.23961951	
0.08483319	-0.39730644	-0.5147526	
0.11887671	-0.245635	-0.66965723	
-0.513085	-0.32479432	0.01130566	
-0.57376766	-0.2427185	0.26146895	
-0.58924365	0.06264336	-0.58750266	
-0.45702255	-0.08796798	0.5077025	
0.0705801	-0.40429777	-0.609493	
-0.98798585	-0.3338539	-0.29994464	
0.12517102	-0.43596056	-0.106373414	
0.20582682	-0.31635424	-0.28899664	
-0.068087816	0.15280506	-0.6603565	
0.7323379	0.39344615	0.17212206	
0.18309425	0.31874233	-0.4140097	
-0.44236737	-0.30127817	0.015400607	
-0.50214165	0.07576683	0.41034907	
-0.037160367	-0.50146884	-0.20178759	
-0.6685107	-0.45804918	-0.07499133	
0.14714281	-0.3806088	-0.29560992	
-0.41466504	-0.28189272	0.052257515	
0.24088699	-0.38303548	-0.13828176	
-0.43043965	-0.2439158	0.14633702	
-0.41232395	-0.25772807	0.11603883	
-0.80465436	-0.077323556	-0.45987293	
-0.53513527	-0.5403522	-0.8334692	
-0.48928097	-0.3371483	-0.020592455	
-0.5099578	-0.26896	0.12908316	
0.50655365	0.4789667	0.0756623	
-0.3358187	-0.24495578	0.14469668	
0.5208943	0.07324165	-0.3104806	
-0.52199674	-0.23574644	0.2433187	
0.19671538	-0.26926288	-0.3462341	
0.06272766	0.3187262	0.41131788	
-0.46370482	-0.28666845	0.06119912	
0.39622936	-0.36598864	0.11257705	
0.78318614	0.32578325	0.18911923	
0.27716744	-0.35290718	-0.16230874	
0.037326228	-0.4575135	-0.4495278	
-0.47062987	-0.28906846	0.06543079	
0.18202397	-0.29329476	0.46168697	
-0.8038477	-0.49235934	-0.028558673	
-0.44015038	0.23886797	-0.05512602	
-0.48035395	-0.32530785	-0.006503459	
0.013882894	0.053281575	-0.6667384	
-0.3604301	-0.25137436	0.11273012	
-0.34017947	0.36756715	-0.17820057	
0.013028055	0.31122753	-0.5254452	
-0.433066	-0.2721992	0.07682533	
-0.71979576	-0.59537935	-0.2735388	
0.13139507	0.35267842	0.3609804	
-0.4372199	0.23573487	-0.42006695	
-0.4097641	0.2888203	-0.09025423	
-0.9019546	-0.13451943	-0.06668778	
-0.43130782	-0.26855373	0.08109442	
-0.42268863	-0.24935655	0.13873783	
-0.4384042	-0.26813954	0.08655028	
0.79364616	-0.025222655	-0.23589072	
-0.65450156	-0.25409457	0.26728374	
-0.9941504	-0.36848694	-0.29951787	
-0.33976474	-0.24819551	0.14824304	
0.122667596	-0.30625188	-0.5933076	
-0.8269408	-0.46405783	0.05548944	
-0.46018624	-0.3384025	-0.032589957	
-0.16796717	-0.27904075	0.5187937	
0.81517357	-0.04841385	0.09437466	
-0.26939172	-0.42249286	-0.8801919	
-0.45869693	-0.3312558	-0.024948489	
-0.4864039	-0.32462406	0.001347214	
-0.46846497	-0.31358278	0.0091557205	
0.07687388	0.29542652	-0.49379003	
0.0811114	0.3954503	-0.42544246	
-0.19110793	-0.25548786	0.2595582	
0.0035960625	-0.37019712	0.12592374	
-0.31016266	0.28816402	0.30384058	
-0.39660704	-0.25253335	0.12146966	
-0.6431149	-0.41656667	-0.030463664	
-0.19774002	0.118616536	-0.72356254	
-0.089727886	0.3025071	0.41285783	
0.027260184	0.14658058	-0.606529	
0.14766273	-0.057655234	-0.5533303	
0.077880315	-0.46150434	-0.1505683	
-0.15629259	0.36811203	0.24041614	
-0.45787644	-0.33422855	-0.02738069	
-0.46038848	-0.33910525	-0.029217549	
-0.2989035	-0.23757836	0.19444783	
-0.7683063	0.0065731257	-0.2530594	
0.07758968	-0.109932974	0.7703738	
-0.72697514	-0.15330897	0.30654716	
-0.4317161	-0.2664972	0.08825879	
0.035552867	0.44455087	-0.3791763	
-0.17650977	-0.52443635	-0.7864678	
0.04230325	-0.4265718	-0.6914372	
0.06237176	0.46941566	-0.20011903	
-0.043028742	0.09522569	-0.68655616	
-0.9059511	-0.17077915	-0.36086118	
-0.43016332	0.18733856	0.059395798	
-0.5873468	0.08674773	0.052254792	
-0.69361794	-0.31905752	0.18534625	
-0.48541242	-0.34032306	-0.022883546	
0.05026475	-0.04977507	0.7442684	
0.47852167	-0.28464943	0.28198984	
0.14609674	-0.38651422	-0.296753	
-0.21234277	-0.36718613	-0.8880639	
-0.4637012	-0.46415317	-0.18870382	
0.40896285	0.17790666	0.49342024	
-0.4916361	-0.19654393	0.351656	
-0.33887917	-0.35701212	-0.08744286	
-0.51323426	-0.5781964	-0.29377645	
0.40264907	-0.2395207	-0.19226684	
0.78791326	0.49961653	-0.09145496	
0.3180321	-0.10056846	-0.31075886	
-0.7156602	-0.5056107	-0.760303	
-0.13705765	-0.13207456	0.7214421	
-0.41821957	-0.23502432	0.19306944	
0.12057244	-0.42661226	-0.18338224	
0.34698236	0.011474574	-0.3320887	
-0.48089284	-0.36200663	-0.05476585	
-0.74203926	-0.501672	-0.741457	
0.5458605	-0.2845407	0.12477106	
-0.45395866	-0.30686596	0.016493	
0.5909333	0.4355979	-0.20448981	
0.7098752	-0.11759336	0.23466647	
-0.0067367777	-0.47243726	-0.6536207	
-0.48375666	-0.6506952	-0.4270927	
-0.4854126	-0.33868265	-0.025469368	
0.015230829	0.45789257	-0.07468665	
-0.43154943	-0.27114403	0.075256646	
0.17605077	-0.34879288	-0.30058664	
0.018549051	0.46820566	-0.2629907	
0.24795282	0.31408095	0.4093361	
-0.8521612	-0.39843076	0.17445324	
-0.40815344	-0.28075004	0.056025304	
-0.48090884	-0.33449465	-0.023734119	
-0.2295165	-0.13213356	0.65963835	
0.7475472	0.50899285	-0.04171279	
-0.26582554	0.32080328	0.23555379	
0.8839495	0.40874946	-0.1857148	
-0.53669333	0.11690165	-0.5402384	
-0.5117129	-0.15314656	0.4104697	
-0.19596937	-0.39837056	-0.8732177	
0.6710857	0.34900588	-0.26498264	
-0.5772738	-0.32841873	0.05453848	
0.6888002	-0.18719122	0.08599481	
-0.36703366	-0.26035565	0.10957417	
0.46810555	0.48388207	0.045777407	
0.45796296	0.4258938	-0.22038959	
0.52666616	0.493075	0.009900743	
-0.41266668	-0.056039475	-0.818179	
-0.8389918	-0.052608103	-0.16910782	
-0.4169897	-0.2770447	0.06497332	
0.2683789	0.31842512	-0.36439058	
-0.4753293	-0.47580644	-0.19000913	
-0.97251034	-0.28054816	-0.11287442	
-0.33357102	0.35669792	-0.28791803	
-0.60559064	0.1374972	-0.17392588	
-0.58990514	-0.24028715	0.2537854	
0.18503782	-0.3712466	-0.2466932	
0.35780275	-0.1801079	-0.26225585	
-0.1710445	0.20612532	-0.6546673	
-0.6564735	-0.62749976	-0.37594637	
-0.41604632	-0.24493071	0.14425166	
0.7384063	-0.079324774	-0.20404619	
-0.17061457	-0.5781136	-0.33132988	
0.42205638	-0.3227702	-0.05716534	
-0.27662396	0.29762614	0.31596896	
0.6782238	0.011710502	-0.29196218	
-0.3668414	-0.25587893	0.11199857	
-0.5274781	0.20502049	-0.310893	
-0.66100657	-0.5875051	-0.2649095	
-0.48276657	-0.33633244	-0.02461274	
0.24251986	-0.29845613	0.42146066	
0.5324151	0.22000813	0.39197898	
-0.48106316	-0.3233198	0.0043326616	
0.6550815	-0.21056458	0.05214803	
-0.53116524	0.13273793	-0.013988772	
0.98718923	0.16587846	-0.06844692	
0.11570129	-0.350832	0.38531816	
0.70168746	0.40768242	-0.2301791	
-0.97602034	-0.47156978	-0.37526923	
0.15599017	-0.28441945	0.53847367	
0.16555957	-0.40786654	-0.17772931	
0.64497393	0.3889388	-0.2397744	
-0.5260064	-0.12226736	-0.8140772	
0.10731697	0.053819	-0.5757034	
0.014864881	0.41993994	-0.4188614	
-0.4950369	-0.15294899	-0.83251643	
-0.3744166	0.23179182	0.07609117	
0.4663008	-0.26901138	-0.10942687	
-0.47185996	-0.31970102	0.0010723621	
-0.4520495	-0.27615833	0.079100296	
-0.48139602	-0.32359198	-0.003821293	
0.2048263	-0.2597996	0.52572	
0.2962842	-0.39712167	0.085852325	
-0.339222	-0.22403905	0.38033897	
0.37975812	-0.3617134	0.1935796	
0.115361005	0.14852694	-0.51568776	
-0.32199126	0.20280914	-0.60447	
0.12984774	-0.3015318	0.49247772	
-0.47921115	-0.36188063	-0.055614725	
-0.3258508	0.37605217	-0.12776537	
-0.777017	0.005712241	-0.19221899	
-0.43290502	-0.27103004	0.07955339	
-0.43695	-0.27076286	0.08678921	
0.39064494	0.42927057	-0.22161092	
-0.41534394	-0.28356576	0.05486799	
-0.10043186	0.016954135	0.6879689	
-0.21300492	-0.24849693	0.30499008	
-0.08945747	-0.0837302	-0.8135477	
-0.57025206	0.09159296	0.11145777	
-0.013945777	-0.5146475	-0.4488514	
-0.22985096	-0.22052228	0.61174357	
-0.64761984	-0.600355	-0.27544004	
0.03380236	-0.48340446	-0.25314188	
-0.45052066	-0.33669218	-0.030607613	
-0.6981494	-0.6218377	-0.7081682	
-0.6336421	0.08640092	-0.4406436	
-0.45661408	0.124101914	-0.6155952	
-0.22403172	0.30179983	0.345581	
-0.8899905	-0.22659793	0.17035301	
-0.49314183	-0.35060233	-0.025816161	
-0.40595073	0.31658065	-0.18845734	
0.1782753	0.34953964	0.37291503	
-0.05630783	-0.3080314	-0.8441847	
-0.6404453	0.0053824987	0.281611	
-0.1406816	-0.072783776	-0.82188606	
0.4239351	-0.31470266	-0.06292088	
-0.4806332	-0.32606784	-0.0054135583	
-0.48410702	-0.3263054	-0.0029094853	
0.8459575	-0.06008834	-0.056353524	
-0.20981205	0.43203908	-0.21117398	
0.0018115826	0.3939241	0.26564327	
0.16932745	-0.40561312	-0.13475344	
0.4056175	-0.002974553	-0.30507222	
-0.5270988	0.20919408	-0.22327685	
0.21812156	-0.075446926	-0.40703914	
-0.5573212	-0.44549114	-0.12721953	
-0.48165405	-0.353619	-0.04195828	
-0.2491869	0.40862268	-0.07905298	
0.03862907	-0.2901033	0.61796904	
0.51263416	-0.15261477	-0.21111818	
0.60014546	0.17526765	0.38043135	
-0.48957363	-0.34486234	-0.03774224	
1.0039216	0.23754956	-0.032501537	
0.023910958	-0.45758492	-0.6137672	
-0.44053334	-0.27406028	0.089421585	
-0.11200407	-0.41646585	-0.12179197	
-0.47929266	-0.3256304	-4.7437847e-05	
-0.36483622	0.2339457	0.3539978	
0.12613998	-0.42718905	-0.17353779	
-0.47482008	-0.32375166	-0.0014120582	
-0.38693428	-0.37532568	-0.098525904	
0.19497246	-0.39169002	-0.17011333	
-0.10799048	-0.452306	-0.80963916	
0.39929846	0.4803737	-0.03597235	
0.45451358	-0.1889705	-0.21156025	
-0.14799662	0.23714094	0.48232967	
0.2561269	-0.3539728	0.30023557	
-0.1545704	0.32766536	0.34648657	
-0.25938296	0.0783136	-0.7485819	
-0.47990915	-0.3589921	-0.05808693	
-0.4918154	-0.34000432	-0.018764703	
-0.6943159	-0.03143505	0.24747534	
-0.7450273	-0.6162982	-0.54172975	
-0.37365925	-0.6527307	-0.6399615	
-0.013489768	-0.4427033	-0.09176229	
-0.47762895	0.1649898	-0.026295278	
-0.64328265	-0.42585874	-0.040891342	
-0.044697993	-0.54756916	-0.34496897	
-0.69530475	-0.144764	-0.7112613	
-0.0071377996	0.001968203	0.7173991	
-0.4042194	0.30697715	-0.123943746	
0.35123318	0.38702068	0.28856725	
0.51605624	-0.30155683	0.010416054	
-0.490435	-0.3392589	-0.022383422	
-0.014097147	0.19078286	0.5609019	
-0.4927765	-0.34302676	-0.028158646	
-0.5431909	-0.6576463	-0.4841442	
-0.60398835	-0.17704807	0.33140934	
0.5668097	-0.013886716	-0.28665477	
-0.4962008	-0.32282564	0.017151445	
0.4776314	0.19416688	0.44348305	
-0.47137168	-0.3159979	0.002593048	
-0.65704155	0.07527184	-0.025284588	
0.040606715	-0.3059047	0.55632526	
0.33368295	-0.3811914	0.013839029	
-0.63613296	0.059244104	-0.5178553	
-0.4924863	-0.34067774	-0.025345333	
0.65832365	-0.120713145	0.32219186	
-0.33084306	-0.3869804	-0.12656352	
-0.9443653	-0.30580223	0.03329721	
0.35351008	-0.25564313	0.4549539	
0.07380219	0.13135833	0.61905694	
-0.38478315	-0.41468212	-0.15515488	
0.15589616	-0.20354523	0.73217213	
0.33953136	0.4800341	-0.13058475	
-0.26170784	-0.23480561	0.40806216	
-0.2918353	-0.43215108	-0.17472535	
-0.44232398	-0.3077969	0.016105816	
0.20810561	0.46725368	-0.13285752	
-0.1718268	0.2692272	-0.58837277	
-0.9217137	-0.2309633	-0.43551326	
-0.49797338	-0.31646383	0.018332891	
-0.26046592	-0.58702374	-0.7369329	
-0.38891238	-0.23402072	0.17160271	
-0.90783316	-0.45140424	0.032598004	
0.11994268	-0.4285607	-0.18125758	
0.18493597	0.38217127	0.30986482	
-0.30074584	-0.29146332	0.040080763	
0.30122638	0.019555107	-0.36164322	
0.70553356	0.21485013	0.26676404	
-0.45593613	-0.33400708	-0.025781529	
-0.094673574	0.44175044	-0.09258134	
-0.53414005	-0.30828646	0.05596544	
-0.43295866	-0.2677356	0.08547503	
-0.48872262	-0.3462646	-0.0334294	
0.24571289	0.08329864	0.6248353	
-0.42483336	-0.4475855	-0.18393594	
-0.3594241	-0.36163536	-0.08812946	
-0.5923249	0.05863754	0.27787122	
0.45775902	-0.33063895	0.1793736	
-0.1596974	-0.26372224	0.26377547	
0.99544054	0.21619686	-0.1223837	
0.55140316	0.11350101	0.4696862	
0.64057434	0.13408408	-0.32786658	
-0.61778593	-0.51817346	-0.17266682	
-0.46022433	0.19399919	0.2523741	
0.3422378	-0.09884885	-0.30374497	
0.046010584	-0.38019663	0.15300177	
-0.5987569	-0.33052146	0.07383789	
0.4081326	-0.27357784	-0.14489624	
-0.48101026	-0.3374741	-0.026957959	
0.07574531	-0.1905498	0.7577583	
-0.863495	-0.11725363	0.12829614	
-0.17633502	0.29961857	0.37487525	
0.33172357	-0.24609444	-0.22646844	
-0.21812053	0.33614203	0.28622246	
-0.5354589	-0.67355007	-0.6591225	
-0.38139462	0.2636701	0.25197265	
-0.029242612	-0.23750874	0.7268617	
-0.16684437	-0.100278705	-0.84182787	
-0.063054465	0.04319206	-0.7307323	
0.15774716	-0.26947433	-0.42693484	
0.16694081	0.47329146	-0.107268244	
-0.058273133	-0.54589015	-0.27893212	
-0.028066032	0.42935187	-0.009297416	
-0.51227486	0.020813853	-0.7141212	
-0.48199582	-0.32139546	0.004752878	
-0.49832553	0.039235473	0.44369385	
-0.011394203	-0.27348375	-0.82231283	
-0.16210252	0.36803347	0.21254632	
0.46846777	-0.25092193	0.35691535	
-0.4831205	-0.36293483	-0.063429855	
-0.041028082	-0.05772432	-0.7805362	
-0.0021188632	0.4094315	0.12506068	
-0.08457434	-0.5592295	-0.32323444	
-0.09183504	-0.56854033	-0.42865214	
-0.47128034	-0.32155934	-0.0025969818	
-0.1561254	-0.57012093	-0.32166186	
0.7421263	0.18362966	0.2551502	
-0.370332	-0.25294507	0.11058211	
-0.68783224	-0.5085741	-0.13510752	
-0.77706707	0.01007678	-0.11433928	
-0.6549477	-0.45222312	-0.07989264	
-0.7196002	-0.6116941	-0.3603453	
-0.80355954	-0.010665342	-0.1224654	
0.25060147	-0.11758505	-0.35976946	
0.27254763	0.47936994	-0.0917795	
-0.3378881	-0.24635923	0.13853957	
-0.7567285	0.013845196	-0.31591237	
0.12129812	-0.4299417	-0.18554136	
-0.43527314	-0.26878056	0.09185778	
0.12200262	-0.43866247	-0.11347498	
0.6720542	-0.19172302	0.03558375	
-0.97210664	-0.28195584	-0.27374744	
-0.30661783	-0.17033994	0.59469676	
-0.6642817	-0.44737786	-0.068919025	
0.29377076	-0.08621642	-0.3417803	
-0.9708923	-0.4079231	-0.46062696	
0.053773493	0.44649625	-0.016152322	
-0.5485417	-0.26489046	0.17296863	
-0.161037	-0.3703409	-0.87267464	
-0.76517594	-0.41392165	-0.7280567	
-0.43641353	0.20598975	0.17171419	
-0.17800769	0.4266459	-0.30754018	
-0.5357762	0.09886097	-0.57944864	
0.07487556	-0.45556763	-0.2605419	
0.25395516	-0.12243222	0.74859124	
-0.457009	-0.33546495	-0.027800776	
-0.41258764	-0.2532385	0.117408276	
-0.60313153	-0.56736207	-0.8140711	
0.39950252	0.066502884	0.58871967	
-0.48305082	-0.32246518	0.0014063045	
-0.6462778	-0.42568344	-0.038635932	
0.51073945	-0.30644488	0.0652286	
-0.48410612	-0.3352368	-0.021695718	
0.34514004	0.31845653	-0.32328698	
-0.35922128	-0.64602363	-0.5095595	
-0.64318955	-0.41617632	-0.029985514	
-0.7077291	0.06703597	-0.25019485	
0.25056076	-0.035936415	0.7191076	
0.5719259	-0.06974749	0.48567387	
-0.71842134	0.053514615	-0.25677776	
-0.35222495	-0.36374456	-0.09015311	
0.08268461	-0.4014936	0.14918745	
0.15892902	-0.34138745	0.36929554	
-0.4077806	-0.3367529	-0.043332644	
0.10818176	-0.3918555	0.23115724	
-0.74793553	-0.29076093	0.2644891	
-0.4807034	-0.3253435	-0.0006729532	
-0.5090429	-0.6603434	-0.73010945	
-0.43344516	-0.26452065	0.09347354	
-0.14351079	-0.5905156	-0.40461695	
0.70956403	0.29163828	0.23348938	
-0.40655145	-0.2771746	0.061695814	
-0.83993244	-0.17536892	0.2215546	
0.6269883	-0.0484794	0.39973325	
-0.43681392	-0.0049542673	0.5221648	
-0.29330236	0.24956399	-0.56159246	
0.36214262	-0.25926483	0.41890785	
-0.4054622	-0.26111418	0.107148685	
-0.6498318	-0.4224884	-0.031468734	
-0.49213064	0.15373406	0.13781726	
-0.45273405	-0.34100458	-0.034344874	
0.45131886	-0.3486566	0.09482346	
0.0384392	0.4307989	0.11026847	
0.0051349327	-0.34941527	0.28068647	
-0.6605334	-0.169539	0.34550506	
0.27602255	-0.3085056	-0.21621314	
0.32832325	0.48880693	-0.043557756	
-0.7706664	0.011223659	0.03464853	
-0.5088761	0.15496245	0.2709765	
-0.3264438	-0.26832524	-0.89375323	
0.31899488	-0.15881597	-0.2826806	
-0.25013143	0.21096218	0.4702299	
0.09399225	0.23888156	-0.50440246	
0.31960285	0.47320828	0.054667752	
-0.78621817	-0.4887456	-0.031957973	
0.8270139	-0.041515343	-0.18257111	
-0.61358374	-0.2759452	-0.82384205	
-0.4762889	-0.36048764	-0.061353534	
0.011287078	0.03536042	-0.6802369	
-0.52308977	-0.29648623	0.07584111	
0.27023244	-0.40126774	0.12519635	
-0.47072053	-0.35494417	-0.054464214	
-0.6801803	-0.22647987	-0.7704751	
-0.49255538	-0.3427506	-0.024007937	
0.6617545	-0.06313227	-0.251728	
-0.0019960105	0.34802902	0.3615253	
-0.45197564	-0.329637	-0.028683797	
-0.46066612	-0.6668694	-0.593341	
0.86838514	-0.033568952	-0.0932727	
-0.42993587	-0.24889661	0.14476295	
-0.45919603	0.2691091	-0.22662438	
-0.49115735	-0.33773977	-0.023091067	
-0.4893966	-0.3381544	-0.020918425	
0.17182681	0.43851295	0.14857727	
0.70869267	0.06636709	-0.31958076	
-0.53724253	-0.042963438	0.44235918	
0.3629477	0.4590535	0.15477642	
-0.48431295	-0.35931277	-0.056035236	
-0.4110332	-0.2787342	0.057190906	
0.7624899	0.26896372	-0.29878914	
-0.5285339	-0.6400265	-0.38801557	
-0.3862122	0.18144058	-0.59741604	
-0.39620072	-0.21681346	0.2642401	
0.20423087	-0.4056704	0.1377834	
0.3330872	0.46316022	-0.18481065	
-0.6416955	-0.40884063	-0.022460312	
0.121162556	-0.4309479	-0.19841492	
-0.4942705	-0.34109867	-0.020289036	
0.4163174	-0.032766163	0.64930844	
0.69047546	0.4503313	-0.20462853	
-0.56127656	-0.5240334	-0.20941791	
0.9802473	0.3575913	-0.08794306	
0.024940364	-0.22906435	-0.7874161	
0.28847265	-0.18834315	-0.28743178	
-0.121939145	-0.3057598	0.10205836	
0.333924	-0.31657878	-0.16378506	
0.01664706	-0.4794805	-0.18549104	
-0.46280843	-0.3351886	-0.027011488	
0.16145174	0.105888456	-0.48494816	
-0.7764561	-0.58471084	-0.28290457	
-0.45146626	-0.3316136	-0.029074894	
-0.3907486	-0.6523297	-0.5197658	
0.02674584	-0.022851536	-0.7102767	
0.2533135	-0.18765497	0.7108262	
-0.75312763	-0.5496093	-0.1555552	
0.09728804	-0.22899196	0.70039654	
-0.034379475	0.39985412	0.18250033	
-0.484367	-0.33600983	-0.022258386	
-0.34173787	0.17034215	0.47139883	
-0.6945066	-0.40517622	0.035906993	
-0.4709399	-0.3144078	0.0034032464	
-0.9694916	-0.33610207	-0.43005353	
-0.5535357	-0.3852327	-0.03741534	
-0.7198769	-0.35257733	0.1381004	
0.26442546	0.07809737	-0.3914191	
-0.35211778	-0.524819	-0.8431839	
0.04388106	-0.4718076	-0.34146902	
-0.77446043	-0.033800855	0.1514737	
-0.712548	-0.10069126	0.29774165	
-0.6198983	-0.45426956	-0.09951009	
-0.6490536	-0.42022693	-0.030865863	
-0.33169344	0.07146311	-0.74337256	
-0.81995994	-0.047696177	-0.25005236	
-0.38144705	0.23263608	-0.5018351	
-0.26749006	0.06385484	0.6025024	
0.8536701	0.09236477	-0.2655492	
-0.101292536	-0.38628983	-0.8465265	
0.3456158	0.30509073	0.39580435	
0.59312916	-0.24590781	-0.001224584	
0.09568881	-0.44489878	-0.19715542	
0.4283275	0.17910016	-0.32432997	
-0.83590096	-0.5329758	-0.11528765	
-0.40398273	-0.27310646	0.06708942	
0.36813766	-0.018051282	-0.31935024	
-0.91197836	-0.32505548	-0.56502426	
0.6757701	0.4661895	0.11144214	
-0.262672	0.39718646	-0.27626172	
0.20737247	-0.19892505	-0.36040863	
-0.0421609	-0.52127874	-0.6039364	
0.27395046	-0.35767046	-0.17095383	
0.06360809	-0.4713627	-0.18089798	
-0.49385056	-0.34225106	-0.025637388	
-0.02106941	0.22572754	-0.58944046	
-0.6578365	-0.64523506	-0.5721574	
-0.47921425	-0.32504725	-0.00086135976	
-0.41071522	-0.27485317	0.065137416	
0.2849177	-0.21979254	0.59731835	
-0.4793009	-0.31924227	0.0021534413	
-0.22619084	-0.6026228	-0.4498676	
-0.21842353	-0.49615377	-0.23558047	
0.34865117	-0.14621314	-0.2803194	
-0.5715098	-0.63457274	-0.766489	
0.52234966	-0.0877562	0.5520098	
-0.17212588	-0.5912741	-0.52149636	
0.57472384	-0.014627416	0.5064205	
-0.4814446	-0.32373005	0.0005135536	
-0.41508472	-0.23357421	0.1928628	
-0.4187273	-0.28046036	0.058518525	
-0.09434196	0.413365	-0.41916037	
0.60633177	-0.14980164	0.36439413	
0.008427888	-0.48140287	-0.1501682	
0.3372294	0.39287785	-0.2782258	
-0.07152189	-0.54876256	-0.4903468	
0.5111272	-0.30171973	0.18482943	
0.066355325	-0.45309794	-0.32991117	
-0.12459776	0.019609347	-0.7753651	
-0.40443143	-0.25681773	0.111736365	
-0.08447964	-0.034711838	-0.792413	
-0.5046799	-0.4162868	-0.1054869	
-0.4946058	-0.3403538	-0.023370456	
0.7909079	0.111129194	0.22038837	
0.12049978	-0.37078887	-0.39306372	
-0.61855626	-0.453014	-0.10082969	
-0.35384363	-0.28808564	0.033393137	
-0.7908077	-0.22576666	0.28311563	
-0.6629058	-0.3621634	-0.8063971	
0.81674385	0.41140336	0.11356686	
0.7704568	0.16249686	-0.3120882	
-0.28775388	-0.2739948	0.08318484	
-0.25661924	0.3179511	-0.49059662	
-0.18197453	-0.58530927	-0.641086	
-0.41060472	-0.2543467	0.11867973	
-0.40734214	-0.25639555	0.11100129	
-0.08465953	-0.14429766	-0.83296835	
-0.45175222	0.2639619	-0.1415347	
-0.17892349	-0.45524067	-0.18187332	
-0.40953794	-0.27916905	0.05733628	
-0.47308886	-0.3568712	-0.051269192	
-0.029663123	-0.12417187	-0.8018874	
0.104209155	-0.018225133	-0.60348916	
0.65050447	0.034486204	0.38859057	
0.38462505	0.4888297	-0.11041953	
-0.48791406	-0.34122014	-0.028537137	
-0.21410173	0.35773456	0.14865452	
-0.59633493	-0.24410109	0.25079674	
-0.833167	-0.026519138	-0.02102916	
-0.5427323	-0.37270004	-0.048012666	
0.5497572	0.3935155	0.23989825	
0.35181755	-0.3444282	-0.09455778	
-0.17258222	0.41907403	-0.062509	
0.57534444	-0.18252796	0.35534325	
-0.62765425	-0.31576917	0.11078856	
-0.8846867	-0.13024816	-0.29280394	
-0.24465078	-0.580447	-0.3452794	
-0.86659324	-0.49339715	-0.0073212087	
0.39422005	0.39782512	0.266642	
-0.4057423	-0.25589317	0.120310456	
0.1429845	-0.25938088	-0.4889492	
-0.365699	0.20029171	0.42056218	
-0.66191864	-0.45754316	-0.07511152	
0.090677865	-0.4493132	-0.2011853	
0.4718385	-0.0046606697	-0.2882244	
-0.406717	-0.25433493	0.12030803	
-0.93099	-0.25007555	0.0655254	
-0.11072652	-0.5450429	-0.27710307	
-0.43819112	-0.2803456	0.07053337	
-0.36680064	-0.25271225	0.11324149	
0.7711643	0.020929039	-0.28807396	
0.3746413	-0.3601219	0.19353849	
-0.15593521	-0.37616187	-0.065308444	
0.013264086	-0.4841033	-0.5590226	
-0.956115	-0.41107962	-0.0055222586	
-0.6466317	-0.5568493	-0.21151482	
-0.6587853	-0.45793444	-0.076974735	
-0.65794206	0.097818494	-0.33614463	
-0.15170023	-0.4883069	-0.21407565	
0.008396504	-0.35397035	0.35600153	
-0.77646685	-0.17004688	0.28630045	
-0.48076475	-0.3624386	-0.05817101	
0.5774666	-0.1127302	-0.22105235	
0.7310365	0.5015796	0.020960785	
-0.6233003	-0.4452445	-0.09424177	
-0.3648643	0.27847436	-0.42989743	
-0.561964	0.12806728	-0.4781782	
0.35751992	-0.2963438	-0.16167818	
-0.6968009	-0.4090832	0.0340465	
0.08321208	-0.28172576	0.5960241	
-0.36838764	0.24181405	-0.49768543	
-0.4935651	-0.3419851	-0.02413993	
-0.022024985	0.4080957	0.09248483	
-0.3544267	-0.35698462	-0.08664585	
0.8387111	0.3030317	-0.27046934	
-0.6992066	-0.46953607	-0.06474714	
-0.4677898	-0.5401764	-0.25936726	
0.14703351	-0.3692939	0.32620135	
0.52348775	-0.2529724	-0.083775714	
0.09671186	-0.44587576	-0.19543971	
0.67073375	-0.19054338	0.15750854	
-0.40878356	-0.25498903	0.12279153	
-0.43968794	-0.30431604	0.017584253	
-0.9227403	-0.515549	-0.45032522	
0.8214736	0.38189822	-0.23140825	
-0.4055958	-0.27563146	0.07353397	
0.6070717	-0.21109298	0.26710433	
0.16352871	-0.23461512	-0.44721907	
-0.6169026	-0.45264608	-0.10117854	
-0.3490164	0.27159262	0.13006622	
0.39746892	0.2950167	-0.30788004	
0.24087712	0.40296173	-0.31236959	
-0.3392043	-0.10548733	0.5945685	
0.27046758	0.4584021	0.08495797	
-0.48026073	-0.322605	0.0004844889	
-0.47112232	-0.3232593	-0.002848301	
-0.80764455	-0.53065336	-0.6594571	
0.17090951	-0.34812778	-0.30936435	
-0.105913095	-0.54232806	-0.66377485	
0.28709114	-0.25344178	0.49411076	
0.57468206	-0.2463569	0.2443618	
-0.46181628	0.13919489	-0.5964385	
-0.41333473	-0.2756366	0.06430915	
-0.46204197	-0.33643323	-0.030176569	
-0.57302535	-0.21329208	0.31397018	
0.8175235	0.27053618	0.18111068	
-0.8990874	-0.52908677	-0.21368966	
-0.49132937	0.19691303	-0.09519492	
-0.48713148	-0.3371426	-0.022067737	
-0.79863954	-0.306567	-0.6934366	
-0.15489626	-0.2684712	0.33046627	
-0.49671686	-0.343089	-0.02827051	
0.13616282	0.0057128444	-0.5486926	
0.2976985	-0.3813842	-0.07012484	
-0.09486331	-0.1997864	0.7327479	
0.18278569	0.29862425	0.43484867	
-0.879201	-0.2604566	0.17872927	
-0.2944636	0.31207496	0.2221126	
0.12167735	0.36085245	0.36090675	
-0.67144835	-0.34378135	0.1095632	
-0.47530878	-0.32426316	-0.0023348918	
-0.81253934	-0.32326037	0.24287891	
-0.7475947	-0.35629684	0.2042712	
0.31792176	0.35574758	0.33410284	
0.8400636	0.13888313	-0.28909552	
-0.3679133	0.22832905	0.07570611	
-0.36575258	-0.25650892	0.11112268	
-0.55112314	0.043776788	-0.6600145	
-0.18077146	-0.59515417	-0.4562709	
-0.28146967	-0.6209887	-0.49931413	
0.06437381	-0.26728854	0.63347137	
0.24129283	-0.3399753	-0.20766181	
-0.7670072	0.022387192	-0.114568375	
-0.053601928	0.38447016	-0.47870517	
-0.5609988	-0.4487313	-0.12924305	
0.6072596	0.26134253	-0.30359015	
-0.43489015	-0.26670837	0.086995736	
0.049972974	-0.22727679	0.733531	
-0.21018885	0.18746303	0.5200312	
-0.55722415	-0.44336033	-0.11604088	
-0.4063952	0.24069561	0.27643368	
-0.42604056	0.24041761	-0.4250332	
0.49732596	-0.15386713	0.521654	
-0.49255925	-0.34093672	-0.02400358	
-0.49250633	-0.34223667	-0.027512347	
-0.3554825	-0.3652719	-0.09674217	
0.062424064	-0.44368452	-0.056597143	
