-0.61975145	-0.6421711	-0.4160219	
-0.63960034	-0.20565116	0.32098082	
0.26867515	-0.38718617	0.005754471	
0.14449489	-0.327373	0.43112862	
0.9232094	0.14504465	0.0693737	
-0.72615683	-0.5407818	-0.17423949	
0.5255003	-0.2551061	0.26220924	
-0.45196003	-0.33291674	-0.030148402	
-0.45005333	0.26141196	-0.14244127	
0.28721464	0.08509256	0.6070682	
0.8230604	0.16767818	0.18814757	
-0.32485303	-0.2673589	0.09536256	
-0.34147453	-0.3252312	-0.02806104	
0.4724428	-0.047322758	0.5967746	
-0.05817201	0.45283496	-0.304187	
-0.43756828	-0.26960805	0.086245425	
-0.27515793	0.33700246	0.088993266	
-0.31320703	-0.4740602	-0.8721663	
-0.7018243	0.067441285	-0.24529786	
-0.09740558	-0.4668901	-0.15213881	
-0.11374214	-0.3041454	0.5574895	
-0.2867518	0.26452655	0.3827723	
0.17891398	-0.34493828	-0.30685914	
-0.5597862	-0.4407068	-0.13038829	
-0.87368715	-0.4114561	-0.64509904	
0.015390128	-0.3715911	0.20920902	
0.5433786	-0.16832015	-0.15900798	
-0.7640965	-0.05578541	0.20789102	
-0.43724012	-0.26966465	0.0861473	
-0.030388508	-0.015384495	-0.75488466	
0.1754007	-0.1590608	-0.5500494	
-0.31155133	0.3663098	-0.06052625	
0.18457432	0.26327825	-0.44056866	
-0.65067023	-0.41207278	-0.037788518	
-0.6275529	-0.44690415	-0.10433713	
-0.12926258	-0.5927124	-0.49870324	
-0.90547407	-0.40088183	-0.6054792	
-0.51331675	0.092430584	0.37236732	
0.25363803	-0.34107417	-0.2059559	
-0.006181471	-0.5327269	-0.36852401	
-0.59641594	-0.2614118	0.2043898	
0.64633983	-0.16878688	0.27229592	
-0.23762791	-0.06434986	-0.8319852	
0.10817381	-0.42204824	-0.289572	
0.13925329	0.06340117	-0.5533036	
-0.82890224	-0.42580068	0.11089091	
-0.49087444	-0.3406733	-0.028334491	
-0.6111442	-0.5040531	-0.1780953	
-0.5163567	-0.323252	0.013224814	
0.27141786	-0.15168992	-0.32003754	
0.47012043	0.023839787	0.58154345	
0.7918278	-0.078638926	-0.08457584	
0.30560166	-0.34886217	0.27860203	
0.24958496	-0.19361883	-0.3211159	
-0.49083477	-0.3403382	-0.028511874	
-0.43498254	-0.6737771	-0.6464552	
0.56565785	-0.21269985	-0.06990148	
-0.4372324	-0.2696764	0.08622632	
-0.9359419	-0.2419331	-0.35229462	
0.4045803	0.34311292	-0.2988919	
-0.9369978	-0.35666627	0.022963911	
-0.45220393	-0.33302754	-0.030103551	
-0.7972405	-0.4672568	-0.0053545684	
-0.65477514	0.10324977	-0.2004772	
0.21282391	0.028214524	-0.45194435	
-0.50895107	-0.41554284	-0.12172794	
0.2562076	-0.059212457	-0.37397146	
-0.21727042	0.13146637	0.5740756	
-0.55437046	-0.56193364	-0.2575998	
-0.8300515	-0.037336867	0.02252835	
0.10243326	0.3801874	0.33719286	
0.63230693	-0.020206429	-0.25835028	
-0.17122252	0.43434915	-0.1378532	
0.20794643	0.44385105	0.08675563	
0.40073657	-0.15709737	-0.23784678	
-0.45178074	-0.3327766	-0.02979536	
-0.6381917	-0.35688448	0.04535989	
0.08435771	0.45954674	-0.13282612	
-0.5290899	0.19453302	-0.30971527	
-0.29910296	0.31621683	0.22634543	
-0.49114996	-0.33999857	-0.02778121	
-0.8459761	-0.38034567	-0.671186	
-0.28826305	-0.33451182	-0.03957106	
0.59906334	0.47207934	0.09331463	
-0.42663082	-0.24659333	0.144606	
0.13551763	0.044748355	0.67803216	
-0.57196504	-0.40890998	-0.85089624	
0.033135675	-0.47471887	-0.53098834	
-0.554361	-0.3358969	0.014706073	
-0.4546287	-0.6249246	-0.3580122	
-0.26729226	0.3372	0.16870883	
-0.39101315	-0.3087847	0.0010119565	
-0.42635593	-0.24645467	0.1450524	
-0.56786764	-0.14745596	0.38456666	
-0.90174437	-0.24326874	0.11754067	
0.3275658	-0.37375346	0.107800305	
-0.65022445	-0.41224065	-0.03673903	
-0.4373387	-0.26937342	0.08720658	
-0.7931939	-0.106519476	-0.52241206	
0.56047314	0.22208834	-0.31722617	
0.8916424	0.1090151	0.09992724	
0.88465685	0.43059933	0.06460475	
-0.39137948	-0.30877113	0.0016256534	
-0.49836937	-0.100859076	0.45554388	
-0.3221668	0.33075494	0.0062083267	
-0.6645471	-0.4465729	-0.08068784	
-0.898412	-0.37637797	0.1005208	
-0.12082766	0.08039346	-0.7352908	
-0.29831952	-0.36987388	-0.0976364	
0.14176702	-0.37474182	-0.33904082	
-0.7321046	-0.5743722	-0.2362481	
-0.40836817	-0.2772594	0.062573664	
-0.45391333	-0.401952	-0.12297283	
-0.4775282	-0.36206922	-0.06407173	
-0.42423958	-0.44517234	-0.17787634	
-0.38580424	-0.33918	-0.8899685	
0.62814957	0.3087663	-0.29407287	
-0.7013011	0.05976861	-0.3078935	
-0.5241927	0.15963636	-0.08659704	
-0.8123697	-0.037648052	0.086498745	
-0.51239216	-0.5777097	-0.28517345	
0.3037827	-0.3530935	-0.13122842	
-0.28023165	-0.28164715	0.07831342	
-0.36534226	-0.6552721	-0.69878674	
-0.55380374	-0.33554697	0.014556877	
-0.6959054	0.0383136	-0.40762877	
0.20614308	-0.41242257	0.20679763	
-0.6177988	-0.58166623	-0.267233	
0.66739404	-0.1804448	0.15288109	
-0.6398594	0.1089451	-0.15446931	
-0.29814842	0.31612986	0.22847362	
0.12581775	0.2672999	-0.48696554	
-0.0009772722	0.35665733	0.36114568	
-0.058584288	0.15958045	-0.6622691	
-0.36154982	-0.25690812	0.110157676	
-0.4524323	-0.33340353	-0.030649543	
-0.7506213	-0.23407885	0.29298759	
-0.3615454	-0.2564614	0.110229135	
-0.3907169	-0.3085894	0.0014808644	
0.11947577	0.11725825	-0.5492838	
-0.9169224	-0.40637136	0.044071116	
-0.048115954	0.23794514	0.5133875	
-0.09633891	0.2146936	-0.63640964	
-0.6052714	-0.019579235	-0.6796067	
0.40250576	-0.29913545	0.29290527	
-0.02157534	-0.14250767	0.75690454	
0.31705356	0.44243008	0.17729817	
0.60256255	0.18519603	-0.32114375	
-0.3415903	0.35329583	-0.07839964	
0.2729874	0.42705512	0.2296541	
-0.47790557	-0.31859493	0.0021091402	
0.49258316	0.48500803	-0.042114437	
-0.02096147	0.059360236	0.6788364	
0.30061507	-0.32301444	-0.17662884	
0.56381714	0.4995496	-0.08498804	
-0.804152	-0.006449878	-0.06303293	
-0.47762185	-0.31837338	0.0017597023	
0.6754664	0.4922511	0.032976218	
-0.9408039	-0.26727754	-0.393356	
0.14579111	-0.34509128	-0.40168625	
-0.38853467	-0.2379989	0.16936192	
0.07612529	-0.43154776	-0.4815325	
-0.49105385	-0.34065825	-0.028295852	
-0.19128749	-0.2623575	0.3692506	
-0.91065097	-0.32320774	0.09809476	
-0.1717523	0.3457178	-0.50840706	
0.9516549	0.12459251	-0.12153108	
-0.53409654	-0.3022139	0.06544531	
0.71434927	-0.14891122	0.08750959	
0.3719254	-0.3476755	0.18965307	
-0.6286647	-0.4466638	-0.104333416	
0.087940335	-0.22796765	-0.7551797	
-0.7935306	0.0029134862	-0.019053616	
-0.20928428	-0.6164473	-0.49719045	
-0.2800011	-0.2805202	0.0792319	
-0.4612795	-0.42763922	-0.871822	
0.10538216	-0.4155879	-0.3310868	
0.8723612	0.28900132	0.14853534	
-0.5630114	-0.18989378	-0.8221827	
0.26488042	-0.21339464	-0.29774237	
0.30301085	-0.3539245	-0.13065194	
-0.48167962	-0.2515694	0.1597926	
0.35512954	0.35488173	-0.30794206	
-0.20609042	0.35287791	0.24797744	
0.06945553	0.4619364	-0.26438197	
0.091809794	-0.38012433	0.30476522	
-0.15517515	0.023237512	-0.77616394	
-0.297446	0.32923973	0.05977454	
-0.9165615	-0.527086	-0.32275498	
-0.098921925	-0.30119514	0.23756523	
-0.57522124	-0.65342313	-0.44050997	
-0.9362605	-0.21922679	-0.27932227	
-0.16701348	0.07751377	0.63306165	
-0.33191377	-0.029749513	0.6050242	
-0.43357328	-0.20979032	0.33378154	
-0.16796346	-0.29601583	0.10952057	
0.56338304	0.4480314	0.16869426	
-0.00032313168	-0.5095891	-0.2159628	
-0.2878152	-0.3339746	-0.039104804	
0.2705404	-0.39546257	0.17832558	
-0.48368302	-0.2888311	0.06396344	
-0.083612055	-0.33067036	0.12251987	
-0.9606644	-0.25156128	-0.20864902	
-0.48248258	-0.25230768	0.15952434	
-0.024273641	-0.39087045	0.050544754	
-0.094759025	0.38594615	0.16382957	
0.092472725	-0.42203155	-0.3676483	
0.02248796	-0.45165083	-0.7523111	
0.23687238	-0.37108737	-0.17244257	
0.066268526	-0.45319307	-0.05296982	
-0.49064797	-0.3405446	-0.02860908	
0.31047827	-0.20485461	-0.26404265	
0.73298997	-0.034866784	0.2647025	
-0.43736634	-0.30231953	0.018910857	
0.1470485	-0.29716393	-0.5434742	
-0.34875497	-0.2918946	0.03418731	
-0.35214826	0.28207538	0.12562141	
0.536774	0.019189727	0.5374308	
-0.49115682	-0.34012732	-0.027900428	
-0.53399366	-0.30307382	0.0649558	
-0.8305619	-0.44580996	0.07362381	
0.88923466	0.027629573	0.0021458678	
-0.98358536	-0.32016686	-0.16452998	
-0.4818313	-0.22010046	0.28113878	
-0.0058128685	-0.5312417	-0.37012833	
-0.86813736	-0.17967182	-0.4639076	
-0.71118796	-0.47132605	-0.080715805	
-0.25569162	-0.40135473	-0.13179047	
-0.008216128	0.40516913	0.16422392	
-0.6522448	-0.5533275	-0.80419326	
-0.49160552	-0.34039617	-0.028396383	
-0.4708423	-0.26068968	0.12835142	
-0.30079764	-0.64571726	-0.6273463	
0.50374573	-0.26928005	-0.04709419	
-0.4787858	-0.36292592	-0.0642206	
-0.9272409	-0.44295973	-0.017997306	
-0.37229815	0.32613578	-0.083497025	
-0.4362962	-0.26987675	0.08624311	
-0.23113117	-0.6259716	-0.62596095	
-0.3357665	-0.24812183	0.14559859	
-0.27129835	-0.53134793	-0.84030515	
0.11203703	-0.382178	-0.48071778	
-0.5933783	-0.28990033	0.14086527	
0.17895329	0.451832	-0.24463068	
-0.49144045	-0.34009492	-0.027874582	
0.07485197	-0.43089944	-0.4818929	
-0.49146926	-0.3404282	-0.028265227	
0.65075135	0.37262347	0.22458605	
0.22064225	-0.27378163	0.49786234	
0.2986087	0.25603917	-0.36420465	
-0.811309	-0.33695823	0.21878114	
-0.35069352	0.2810275	0.04687489	
0.81046426	0.49003544	-0.0037825126	
-0.15421025	-0.30842072	0.084663324	
-0.6103574	0.11364201	-0.10364302	
-0.059871785	0.43613362	-0.054577794	
0.32540944	-0.37209618	0.17465645	
-0.9761263	-0.4532686	-0.16238125	
-0.6277902	-0.31800693	0.10776131	
-0.9672941	-0.40417385	-0.07234174	
-0.49117938	-0.34052846	-0.028171398	
0.41670775	0.45530146	0.15527931	
0.4257058	-0.21690911	0.441994	
-0.7881808	-0.4271504	0.069159076	
-0.5163229	-0.32316706	0.01396843	
0.1908598	-0.33143693	0.3835718	
0.0028812326	-0.50414383	-0.5139444	
0.31720132	0.097757325	0.58853126	
-0.4774474	-0.31855357	0.0013490468	
0.21269003	-0.39087707	-0.113230124	
0.1799714	-0.19772354	-0.5033254	
0.7744324	0.3073325	-0.28957713	
-0.9340732	-0.20324749	-0.07309891	
-0.33540908	-0.24755305	0.14606516	
-0.66420186	-0.4461091	-0.08012752	
-0.14315972	-0.32986948	0.038652048	
-0.31629276	0.24444325	0.39437878	
0.41845867	-0.1917502	0.5345602	
-0.4830967	-0.2887665	0.06382521	
0.6219299	0.5015692	-0.019855559	
-0.74935865	-0.3090477	-0.7501482	
-0.4734708	-0.61766046	-0.8119023	
-0.4721403	0.25015095	-0.19387177	
0.0045649707	0.40534046	0.22111557	
0.7470142	-0.0873255	-0.14418408	
-0.84631354	-0.5038973	-0.060445566	
-0.2791571	-0.28106356	0.07898798	
-0.4827778	-0.28840634	0.06478786	
0.41812086	0.3598634	0.31931818	
0.4392118	0.43645257	0.21753386	
-0.01337903	-0.53909135	-0.27908963	
0.06537125	0.4555593	-0.32624313	
0.42854738	0.391503	0.28399605	
0.39953256	0.38747317	-0.27003223	
0.17818609	-0.23499995	-0.44871062	
0.67900467	-0.13555315	0.27952826	
-0.4264783	-0.24559711	0.14554359	
0.18087094	0.021518044	-0.5056023	
0.009975358	0.45976767	-0.21669729	
-0.027910471	-0.33701527	0.41694552	
-0.43952942	0.18862125	-0.0100681335	
0.017898563	-0.33989465	0.47917765	
-0.4778089	-0.31890938	0.001751205	
0.19374198	0.09886509	0.6281573	
-0.25585145	0.28902194	0.35833573	
-0.47820276	-0.3631953	-0.064496495	
-0.89705306	-0.47464234	-0.5914336	
-0.4525256	-0.33347964	-0.030231044	
0.6020018	-0.22453186	0.18891656	
-0.47793326	-0.31856614	0.001506567	
-0.28352898	-0.35211092	-0.8928642	
-0.2614422	0.15375432	-0.68444884	
-0.4779884	-0.31897438	0.0011131633	
0.0048853103	-0.064524986	-0.76252127	
0.8828689	0.35216567	0.12412116	
-0.75271875	-0.51618296	-0.122324735	
-0.3754657	-0.4134983	-0.15007937	
0.4908508	0.06253411	0.5530092	
0.38355342	0.12055141	0.55351186	
0.21178217	-0.3652986	-0.21387728	
-0.49132055	-0.34012127	-0.027770102	
-0.84753793	-0.5433745	-0.19149795	
-0.79545784	-0.536482	-0.14544077	
-0.36202943	-0.25673476	0.10951179	
-0.24722826	-0.2478557	0.57167494	
-0.16641016	-0.21505426	-0.8781684	
-0.3404339	-0.09286139	-0.84378403	
-0.35136524	0.2816399	0.079726845	
-0.87398636	-0.091720805	-0.024876771	
-0.4347247	0.041921318	0.49476123	
-0.7234657	0.011120319	0.11993002	
0.29341486	0.3361399	-0.3464179	
-0.7672366	-0.012135252	0.11445562	
0.12685497	0.16079424	-0.5217165	
-0.34507266	0.30798757	-0.38089487	
0.92872846	0.124215074	-0.19509023	
-0.29763338	-0.36971492	-0.09638351	
-0.35824764	-0.2185958	0.32135832	
-0.5540738	-0.33552286	0.014250968	
-0.06376971	-0.31851467	0.3572111	
0.5527797	-0.054613627	-0.2389417	
-0.3615234	-0.25671026	0.108791664	
-0.08611419	-0.19153053	-0.8577762	
-0.4262077	-0.24639621	0.14565024	
-0.006298635	0.29893643	0.45023537	
0.10192962	0.15325151	-0.55017626	
0.88813794	0.15239753	0.12458605	
-0.21878435	-0.3713187	-0.07986825	
-0.9932173	-0.38530606	-0.17554304	
0.2637597	-0.008268006	-0.38260353	
-0.40852112	-0.27740932	0.061780594	
0.16517855	0.4620725	-0.16075939	
-0.8588905	-0.31939423	0.1895577	
-0.3243701	-0.63891065	-0.45531166	
0.9333761	0.1073795	-0.0048348494	
-0.07333859	-0.5630044	-0.5552464	
-0.49158794	-0.3406705	-0.028048892	
0.85212314	0.22694197	-0.28013062	
-0.5167414	-0.3236261	0.013503259	
0.11984761	-0.43999293	-0.10658186	
-0.6505388	-0.41177398	-0.03753362	
0.055669755	0.41921222	0.16242297	
0.25264668	-0.3892377	0.24200927	
0.23232204	-0.4091167	0.08863511	
-0.9187348	-0.2935822	-0.51561904	
-0.5386842	0.16786884	-0.13422495	
0.23855129	0.13676348	0.58665323	
0.77470255	-0.09844695	0.06379579	
-0.37370372	0.26980466	0.18450907	
0.3314267	0.1651883	0.5381746	
-0.7497841	-0.16782425	-0.6644864	
0.2514876	0.029685527	-0.40104944	
0.12124389	-0.427759	-0.18316376	
-0.2788085	-0.23457308	0.36323756	
-0.93624294	-0.23767191	-0.016994629	
-0.3212446	-0.64788234	-0.57820976	
-0.4085114	-0.27726942	0.06215051	
0.69505703	-0.098116115	0.29848573	
-0.5437983	0.027458236	0.39395157	
-0.19347101	-0.13662949	-0.85692406	
-0.8772598	-0.5450566	-0.24577534	
-0.12687838	0.4379197	-0.32839534	
-0.43712917	-0.2698875	0.08622421	
-0.8726763	-0.31723312	-0.6306346	
0.111728705	0.44758618	-0.31376958	
0.198246	-0.09663312	-0.47420156	
-0.43719435	-0.2699555	0.08629185	
-0.4638613	-0.56397474	-0.8453939	
0.14584704	-0.34531716	-0.4017923	
-0.69028854	-0.21939293	0.31027442	
0.04637435	0.3595063	0.36900097	
-0.42562667	-0.44593227	-0.178295	
0.21354184	-0.39016163	-0.11347808	
-0.35130006	-0.3580746	-0.083328806	
-0.71211386	-0.25293106	0.28200296	
0.27864757	0.45409992	0.034748465	
-0.4795743	0.0009909458	-0.7415451	
0.009131275	0.44628257	-0.072299115	
0.16307186	0.4147291	0.2514971	
-0.5169275	-0.27300364	0.124013826	
-0.4373381	-0.26959357	0.08669454	
0.67092115	-0.055366937	0.3506927	
-0.806414	-0.17609465	0.26478115	
0.13627103	0.3121164	-0.4615982	
-0.4778845	-0.3186772	0.0014417917	
0.58684635	0.31301656	0.29109588	
0.19146784	-0.3321964	0.38374978	
0.5904739	-0.23736791	0.09882812	
0.12587103	-0.3978104	-0.31404176	
-0.27016914	-0.6201707	-0.40932247	
-0.49062172	-0.34016842	-0.027608505	
-0.45233545	-0.33299065	-0.029765703	
-0.54289997	-0.67199326	-0.57490206	
-0.2852416	0.39400926	-0.17603278	
0.14602844	0.45079476	-0.013754286	
-0.3914767	-0.30892617	0.00078848377	
-0.055529162	-0.56027	-0.43304157	
-0.6105365	-0.6503087	-0.7062876	
-0.4776106	-0.31912896	0.0018602163	
0.49899194	0.16043484	-0.31624612	
0.9133368	0.05048007	-0.09458129	
-0.5164878	-0.32338303	0.013825237	
0.18856093	-0.3689607	-0.24286512	
-0.27719098	0.36342162	-0.00648465	
-0.45149472	-0.3330862	-0.029792652	
-0.18295205	0.41240942	-0.047923505	
-0.42553025	-0.67021364	-0.5558327	
0.20834875	-0.034227543	-0.46135318	
-0.25119478	-0.25727287	0.17675906	
-0.40923387	-0.27778015	0.061385997	
-0.43730807	-0.2696697	0.086795375	
-0.33814782	-0.5155544	-0.25211903	
-0.03629155	0.4010653	0.13197917	
0.6563759	-0.18106407	0.20054996	
0.33489534	0.4624617	0.0053609014	
-0.43781376	-0.3020134	0.018991217	
0.18761845	-0.40312693	-0.07244046	
-0.6121853	-0.5034143	-0.17757899	
-0.45077282	-0.33257833	-0.029829182	
0.1269124	-0.39831647	-0.31402928	
0.05333624	-0.4812576	-0.22326791	
-0.518147	-0.27331704	0.124569856	
0.058711633	0.016090417	0.7053528	
0.29564172	0.46891242	-0.114723384	
-0.65687394	-0.6150991	-0.33346367	
-0.854774	-0.43923962	0.08583067	
-0.163496	-0.28293124	0.16895893	
0.1677638	-0.22733353	0.67257833	
-0.11306804	-0.2546875	0.68968666	
0.13116449	0.40026486	-0.400246	
-0.5887866	-0.06756208	-0.73696315	
0.21099895	0.45205456	0.013093356	
0.27947992	0.033978224	0.64714587	
0.026246935	-0.49159193	-0.4252118	
-0.40843466	-0.27745098	0.062073696	
0.17673525	0.3948239	-0.37570035	
-0.43750232	-0.3025728	0.019217934	
-0.29835302	0.29886654	-0.47785085	
0.045875296	-0.4940556	-0.2604193	
-0.992034	-0.43474194	-0.22777276	
-0.024494182	-0.433902	-0.8176663	
0.08172243	-0.42776358	-0.42342475	
0.45470342	0.344052	-0.2859782	
-0.4522279	-0.33304572	-0.030196963	
-0.75408864	-0.11093555	0.27372727	
0.956922	0.18515176	-0.17804596	
-0.2924575	-0.6387153	-0.68481034	
-0.7837409	-0.12268316	-0.5700736	
-0.30264923	-0.23425537	0.46935266	
0.11242609	-0.34881204	-0.7200123	
-0.03350035	0.41235253	0.043813772	
-0.5732908	0.09764311	-0.51301026	
-0.19909781	-0.5992924	-0.36866638	
-0.40888503	-0.2539907	0.11824715	
-0.47814786	-0.3190218	0.0014838744	
0.5167982	0.30100328	0.33182633	
-0.80779964	-0.36933774	0.18281598	
-0.7458941	0.029739201	-0.029865492	
-0.8353554	-0.10614765	0.15786977	
0.5416346	0.27644682	0.3364744	
0.84618604	-0.007545989	0.062487032	
0.1688852	-0.4046581	-0.12562321	
-0.81236506	-0.14701918	0.24462913	
0.033662252	-0.09479062	-0.75789964	
-0.67740965	-0.17514336	-0.7437325	
-0.5506743	-0.28844115	0.11064052	
0.34162727	-0.33472714	-0.11853313	
0.6501566	-0.096362375	-0.18928003	
0.9412408	0.2347267	-0.20758677	
-0.21754906	-0.5679814	-0.30202505	
0.7191477	-0.13513763	0.15474884	
0.48652974	-0.20932436	-0.15048334	
0.5438875	-0.17357789	0.39281657	
-0.390801	0.3125859	-0.26661676	
-0.40834254	-0.27781454	0.061506208	
-0.13084882	-0.5958338	-0.44992593	
-0.4373712	-0.2696489	0.08670971	
-0.5166911	-0.32255435	0.014647804	
-0.43774748	-0.3020889	0.019123904	
-0.44604316	0.06529112	-0.6941594	
-0.7192678	-0.2050167	-0.7280463	
0.1961425	-0.36547405	0.31845415	
-0.6501497	-0.41139215	-0.03688675	
-0.018601656	-0.23104516	-0.83702004	
0.54613703	0.43279624	0.20435487	
0.1888493	-0.36885512	-0.24311796	
0.69488907	0.11322248	-0.31826276	
-0.4827218	-0.28844172	0.0646268	
0.9368244	0.36555403	-0.17616741	
0.6741124	0.51290995	-0.10601941	
0.71517	-0.12686703	-0.07816158	
-0.41038322	0.21886638	0.33689314	
-0.29390255	0.3592698	-0.33722073	
0.17820825	0.43436003	-0.3070132	
-0.4684502	0.13606817	-0.57855344	
-0.11677551	-0.426058	-0.11475716	
-0.65045667	-0.41161066	-0.03749321	
-0.14621994	-0.05182782	0.70153683	
0.2722825	-0.17682645	-0.30792624	
0.8904481	0.10887746	0.09991227	
0.61793625	0.5068972	-0.08749787	
-0.7973589	-0.04716663	-0.34164283	
0.12131034	-0.37639073	-0.43344784	
-0.3257044	-0.20831281	0.53142065	
0.4606337	0.29490346	0.36234385	
-0.75054353	-0.042851135	-0.49135667	
-0.43785626	-0.26986313	0.0869309	
-0.45288062	-0.4871673	-0.2114414	
-0.85001326	-0.52845734	-0.61060727	
-0.5279958	-0.28843182	-0.8628853	
0.6537236	-0.17571825	-0.015349809	
-0.43720025	-0.26989794	0.08647981	
0.29227066	-0.26711515	-0.2376332	
0.49776417	-0.18924662	0.42221433	
-0.021106636	0.40967104	-0.45660788	
-0.043743998	-0.06303962	0.73358214	
-0.8939056	-0.27306372	0.13973492	
-0.49137437	-0.34039786	-0.028062679	
0.14625168	-0.34551612	-0.4022468	
0.04609056	-0.49334484	-0.26027256	
-0.2542835	0.394783	-0.29292303	
0.4671517	0.25668	-0.31444752	
-0.09734874	-0.58186656	-0.4659679	
0.3180808	-0.33085918	0.3037608	
0.8473001	0.09834543	0.15146822	
-0.47822005	-0.31918085	0.0009479653	
-0.4557227	0.17699654	-0.5140796	
-0.36192006	-0.25661138	0.10996729	
-0.4827172	-0.2886772	0.0645284	
-0.29822898	0.31803012	0.15805086	
-0.71360165	0.03337948	-0.36945242	
-0.010561509	-0.27153593	0.67047167	
-0.5344993	-0.30223542	0.065986305	
-0.72346306	0.013698086	-0.4116087	
-0.06237001	-0.5152962	-0.7508879	
-0.51657325	-0.32296467	0.014137469	
-0.42691395	0.23477536	0.24955907	
-0.40829253	-0.27730393	0.06252614	
-0.37754756	0.3347479	-0.1363459	
-0.35965014	-0.22624947	0.23629369	
-0.4915182	-0.34039873	-0.027684212	
0.07210356	-0.35714313	0.41139224	
0.67965746	0.22370411	-0.31846994	
0.15043743	-0.3806116	-0.29717824	
-0.40856498	-0.27756703	0.062161382	
-0.40809137	-0.27756214	0.06173261	
0.6666808	-0.18026659	0.15291275	
-0.24055633	0.2297308	-0.6197471	
-0.7148311	-0.025312062	0.2269797	
-0.7054449	-0.17838223	0.3227384	
0.9643236	0.19136962	0.022624912	
0.7473343	0.11251694	0.2597548	
0.38034606	0.08863543	-0.31917673	
-0.0007133335	-0.5094724	-0.21668783	
0.62787235	0.07012497	-0.30311823	
0.029572	0.4189657	0.07898395	
-0.4178021	0.24219795	0.22490823	
0.32279193	-0.3187127	-0.16053928	
0.76108086	0.24121386	0.22511652	
0.032185905	-0.4062428	0.08424909	
-0.4077499	-0.253604	0.11877354	
-0.49072933	-0.34048954	-0.028512614	
-0.5641686	0.10188097	0.11351022	
0.24242438	0.45456544	0.0025341883	
-0.006456363	-0.5316109	-0.37038782	
0.26320794	0.3789031	0.32866874	
-0.8227874	-0.060905114	-0.2456612	
-0.9609024	-0.2968791	-0.35553908	
-0.5877799	0.123019926	-0.41500407	
0.87777257	0.209645	0.14242865	
-0.78808737	-0.5052496	-0.082137585	
-0.7140811	0.03364926	-0.37069654	
-0.47812718	-0.31860945	0.002094293	
0.062952325	0.025998622	-0.6605551	
0.09826906	-0.13082035	-0.722052	
0.49781826	-0.29893988	0.13898447	
-0.06041818	-0.29269433	0.62675214	
-0.38313445	-0.37910113	-0.10846093	
-0.49715382	0.14738365	0.10534278	
0.07410154	0.16297469	-0.57113457	
0.31608403	-0.04440678	0.6950052	
-0.1640253	-0.54515034	-0.2670014	
-0.40867877	0.31300583	-0.18997724	
-0.4777243	-0.318571	0.0018194504	
0.6964983	0.07053398	-0.30632842	
0.0269704	0.3795663	-0.47752976	
-0.1457046	0.39595506	0.022693444	
-0.43700448	-0.26961184	0.087355465	
-0.523118	-0.209057	0.32487077	
-0.5506301	-0.28930053	0.108847134	
-0.55332243	-0.26578265	0.16933513	
0.35340232	0.13169026	-0.33670974	
-0.46835464	0.17635505	0.3220688	
0.064903274	0.26504076	-0.5316616	
-0.47820923	-0.3186398	0.0019409396	
0.18740164	-0.055976715	-0.508284	
-0.55369735	-0.3357124	0.014680885	
0.97547865	0.27721885	0.04256028	
-0.5159281	-0.50305456	-0.21025832	
-0.9823571	-0.39862317	-0.38699046	
0.029038318	-0.3563825	0.42564988	
-0.49143183	-0.34026217	-0.027810752	
0.77315986	0.45801127	0.085800424	
-0.50902486	-0.41612908	-0.12160467	
0.09527242	0.39732268	0.3024281	
0.94253165	0.41915143	-0.016257789	
-0.5539884	-0.33527392	0.014673471	
-0.23327497	-0.62566966	-0.5673399	
-0.65063334	-0.41182762	-0.038074296	
-0.52838206	-0.17756732	0.3760432	
-0.40020537	-0.5891884	-0.32199147	
-0.57125485	-0.06274238	0.3993642	
0.6478758	-0.16921903	0.27341163	
-0.0987218	-0.24114165	-0.8681462	
-0.8827989	-0.11977801	0.029518843	
-0.4085961	-0.27750468	0.06218373	
0.32075924	-0.3584854	-0.09978767	
-0.015565202	0.026456386	-0.72039473	
-0.43746227	-0.3019203	0.019387767	
-0.40733737	-0.25327834	0.11926822	
-0.49044126	-0.33997804	-0.028084602	
-0.08053258	0.39419264	0.08769234	
-0.381903	-0.37874863	-0.10852327	
-0.3613833	-0.2567565	0.10968889	
0.12131698	-0.42776573	-0.18251166	
0.14694703	-0.4286971	-0.029462762	
0.64909	0.11182822	0.3635389	
0.46672362	-0.10675889	0.5935789	
-0.41279018	-0.6667394	-0.6908464	
-0.6394485	0.041781876	0.19044603	
-0.44254082	0.2298801	-0.4122345	
0.15581408	0.28100678	-0.45935464	
0.29334173	-0.3792804	0.20362636	
0.0765108	-0.3419987	0.45791063	
-0.8978051	-0.16578753	0.05816616	
-0.44291008	-0.6637088	-0.4649731	
0.07026667	0.40929082	0.26163995	
0.73846614	-0.016046867	-0.2473454	
-0.5167242	-0.32329252	0.013792649	
0.2666235	0.08823963	-0.3933922	
0.18133008	-0.38713443	-0.20751289	
0.69933367	-0.11947069	-0.12241358	
0.37009606	0.3719762	0.32058302	
-0.65089446	-0.41144806	-0.036507413	
-0.43729612	-0.5280667	-0.25302905	
0.8649521	-0.01587363	-0.04705452	
-0.76566523	-0.13835295	-0.6172967	
0.31417382	0.19388163	0.52338266	
-0.49115503	-0.34035635	-0.027795866	
-0.7574433	-0.5576157	-0.19971791	
-0.6562532	-0.117902525	-0.7189505	
-0.5167187	-0.32315046	0.013679594	
-0.4913262	-0.34010985	-0.028079405	
-0.37392387	0.04472179	0.54288733	
-0.47715724	-0.31857505	0.0015328303	
0.71332574	-0.13679445	-0.02964239	
-0.0431417	0.13473473	0.6173731	
0.4991349	0.33067358	-0.28740358	
-0.45143408	-0.33293316	-0.030258995	
-0.22894233	-0.4065626	-0.88739777	
0.081309445	-0.45246702	-0.2673832	
-0.24647853	-0.24957792	0.2245343	
0.47694987	-0.29490784	0.21963294	
0.68044317	-0.15387887	0.23542967	
0.33269444	-0.37229598	0.049378652	
-0.478696	-0.36297312	-0.06466534	
0.53773206	0.45437306	-0.19377959	
-0.5165519	-0.3235307	0.013953738	
-0.9275445	-0.19363472	-0.23450674	
0.23835237	-0.0056553595	-0.41516906	
-0.43835256	-0.30226082	0.019439574	
-0.66523194	-0.4458589	-0.08007985	
-0.42641032	-0.24632722	0.14467663	
-0.43678328	-0.30198413	0.018881992	
0.42222446	0.47153443	0.0029184967	
-0.40841642	-0.2776105	0.06218134	
-0.20525408	-0.4307999	-0.15645745	
0.84350085	0.015585177	-0.2147153	
-0.44964457	0.27198738	-0.1872634	
-0.6365438	-0.35611272	0.04672771	
0.17929992	-0.06956212	0.73032784	
-0.8099031	-0.102847114	0.20196211	
0.3217369	-0.1929013	0.6468459	
0.0456101	0.43029577	0.02661854	
0.9327115	0.3131224	0.09643701	
-0.5916642	-0.10125669	0.38563576	
0.123007305	-0.38587594	-0.38971645	
-0.6278962	-0.44688755	-0.103794925	
-0.40761226	-0.25344297	0.11927433	
0.14047316	-0.3317922	-0.45628724	
-0.95044523	-0.23210737	-0.10180004	
-0.6211469	0.018406551	-0.6056629	
0.14555329	-0.3449387	-0.40256634	
-0.36059082	0.12176446	0.4996614	
-0.38359082	-0.6021334	-0.81119895	
0.1312062	-0.14043763	-0.68442583	
-0.29804182	-0.36966217	-0.096708216	
-0.49104574	-0.33994138	-0.028126162	
-0.071725056	-0.3273854	0.16936025	
-0.49017102	0.21743521	-0.14286308	
-0.11024697	0.13070488	-0.6983511	
-0.4522523	-0.33269012	-0.030063024	
-0.4781502	-0.31878546	0.0016153157	
0.068322316	-0.4402703	-0.57117	
0.01122071	0.3926731	0.28097704	
-0.018545616	-0.35878822	0.17126185	
-0.6543415	-0.043258227	-0.64941025	
-0.5164319	-0.32321772	0.01340447	
0.14300334	0.4556612	-0.05021881	
-0.4784367	-0.3632667	-0.065153465	
-0.17711723	-0.27636802	0.43387708	
-0.4909793	-0.3400826	-0.027371038	
-0.23247336	0.3753224	0.004542336	
-0.53294206	-0.30266437	0.06511468	
0.8191406	0.4509559	-0.17889729	
-0.43927276	0.10692237	0.44259608	
-0.47863382	0.10034812	-0.6278046	
0.373192	0.4622098	0.043240145	
-0.15506259	-0.45782495	-0.86377156	
0.2841393	-0.04683402	-0.34859776	
-0.9520054	-0.3426881	-0.01924228	
0.3307642	0.28131357	-0.3435964	
-0.628054	-0.44735962	-0.104738116	
-0.40824497	-0.27742422	0.061873093	
-0.51642334	-0.32318372	0.01367812	
0.17176232	-0.21719958	-0.5594938	
0.8398389	-0.03904243	0.0017294511	
0.096348725	-0.4050954	-0.57687235	
0.5697916	0.37198555	-0.2623452	
-0.21515173	0.3575828	0.10078501	
0.17889059	-0.34594077	-0.30727848	
-0.4077884	-0.25334442	0.11945392	
0.5832782	0.482875	0.04268212	
-0.3358648	-0.39310253	-0.12893619	
-0.92181325	-0.17472081	-0.16844457	
-0.47797436	-0.3188231	0.0014056247	
0.4003653	-0.15701446	-0.2374085	
-0.45211688	-0.33279282	-0.030149266	
-0.32611763	0.3701683	-0.13289425	
0.87847245	0.0133267455	-0.14608309	
0.104276106	0.3594309	-0.45531467	
0.17857689	-0.24792233	0.6099937	
-0.08391727	0.058546644	0.6688707	
-0.70555496	-0.62477726	-0.44373187	
-0.5511092	-0.289081	0.109755	
0.5663619	0.49208504	-0.01669059	
-0.7908229	-0.4029721	0.1284745	
-0.35304058	-0.35917577	-0.08307199	
0.68903834	0.007675566	0.33772048	
-0.38940498	-0.43656728	-0.8768313	
0.122406766	-0.38497382	-0.3906748	
-0.24575046	-0.4616493	-0.19757673	
-0.36940646	0.28617644	-0.0167903	
0.14105253	-0.37573665	-0.34014058	
0.45787036	-0.2492539	0.34367943	
-0.6372824	0.11644619	-0.24489665	
-0.18889046	-0.5910033	-0.73219836	
-0.58013153	0.059921376	-0.58800316	
0.5834019	-0.19740216	0.31129235	
-0.6405096	-0.0853042	0.34391972	
-0.38883603	-0.23740087	0.17080525	
-0.43715554	-0.30261695	0.018801555	
0.067426294	0.27865428	0.4840269	
-0.4912839	-0.34036893	-0.027905352	
-0.44923103	0.24699444	-0.11332089	
-0.4651881	-0.20197229	0.3530374	
0.73235214	-0.13251962	0.023506366	
-0.2512303	-0.1580998	-0.86946934	
0.29177073	0.15214053	-0.3732354	
0.3244705	-0.2803883	-0.20005623	
-0.40817684	-0.2774222	0.06253941	
0.43372914	0.47815496	-0.07251128	
-0.62695163	-0.44681218	-0.10436842	
-0.17305672	0.34861362	0.29921478	
0.25441092	-0.385217	-0.073464796	
-0.08836952	0.40761667	0.014965385	
-0.24945188	-0.25695097	0.51163447	
-0.4853742	-0.08012211	-0.79911166	
-0.65315664	0.0908871	-0.114500865	
0.63091314	-0.16532092	-0.08668972	
0.15595123	0.439318	0.05969949	
-0.085356206	-0.403332	-0.05451381	
0.18956986	-0.10210306	-0.49552047	
-0.9055098	-0.15835157	0.008210629	
0.17918304	-0.3455041	-0.30716497	
-0.15038303	-0.3083225	-0.8833832	
-0.66603434	-0.4456283	-0.07964024	
-0.48634762	-0.23758358	0.21500686	
0.42463315	-0.31094283	-0.055859365	
-0.6641905	-0.44595477	-0.07931321	
-0.66500217	-0.44585234	-0.07988444	
-0.51094437	-0.019869853	0.44887128	
-0.49087822	-0.34007472	-0.028430976	
-0.59455764	-0.04333903	0.3726293	
-0.91672516	-0.27861273	0.08116701	
-0.6007394	0.0030225962	0.3389893	
-0.08374107	-0.0042767935	-0.7741536	
-0.437105	-0.2694404	0.08656388	
-0.49230677	-0.6690652	-0.4875347	
-0.041449532	-0.54424953	-0.535	
-0.4784444	-0.36335433	-0.06488985	
-0.15013403	-0.16593221	-0.86215365	
-0.425876	-0.24573891	0.1457045	
0.1643495	-0.14054237	-0.60626924	
-0.34687683	0.284971	0.27054736	
0.45697692	-0.06660245	-0.2519643	
0.5284648	-0.2702365	0.21355003	
0.34658444	-0.14386204	-0.27167255	
-0.75623965	-0.44615516	-0.0034370394	
-0.2946149	-0.29701757	0.033316117	
0.07247591	0.11322196	-0.5979341	
0.792675	0.24969274	-0.30118528	
0.5167506	-0.22466382	0.33112788	
0.4258507	0.08521736	-0.30577123	
-0.41109806	-0.06603784	0.55021584	
0.049330696	0.37654704	0.33792615	
0.31211564	-0.034898505	-0.32933673	
-0.49137825	-0.3400023	-0.027596112	
0.5187017	0.24960962	-0.3126722	
-0.026238626	0.4440855	-0.39482602	
0.15033564	-0.38038456	-0.29752806	
-0.9596281	-0.48597136	-0.22941726	
-0.63712054	0.11595297	-0.24409032	
0.021528348	0.09310281	-0.6526382	
0.75044626	0.39430323	-0.24590676	
0.30440894	-0.38371605	0.13130881	
-0.09289244	0.30728832	-0.55783653	
-0.11116506	0.16731352	0.57298005	
-0.8682113	-0.4803964	-0.010793261	
-0.627657	-0.44623137	-0.104264304	
-0.470344	-0.26041654	0.12763897	
-0.4371009	-0.26960602	0.086669594	
-0.6501671	-0.41245103	-0.037841816	
0.23249477	0.22794634	0.51848584	
-0.42573434	-0.24568504	0.1457923	
-0.7128333	0.05402823	-0.11436756	
0.043633066	-0.4642327	-0.094574735	
-0.6138588	0.061947394	0.16879907	
0.24786016	-0.31262434	-0.24315703	
0.1360279	-0.2506597	0.6406018	
0.6002798	0.06675606	0.44155446	
-0.75785804	-0.5979388	-0.6438386	
-0.5538691	-0.33556622	0.014701575	
-0.47907054	-0.3630584	-0.065032564	
-0.94052666	-0.41111052	-0.52818483	
-0.49162155	-0.33992878	-0.02796454	
-0.48312676	-0.28868845	0.06376769	
0.15841731	0.11389117	0.62757623	
-0.35157484	-0.62733644	-0.40104777	
0.19982302	-0.28917164	0.47552136	
-0.8024272	-0.08203845	-0.44852287	
-0.378034	-0.6489121	-0.44699845	
-0.15504426	-0.5026361	-0.21941558	
-0.15757538	-0.40369076	-0.10137235	
0.23883024	-0.24534923	0.56494194	
0.5509239	-0.26167312	0.17591414	
-0.4915455	-0.34054178	-0.028084155	
0.28448	-0.32762787	0.33256215	
-0.688456	0.041162007	0.04934147	
-0.47804022	-0.31852117	0.0018526465	
0.13093957	-0.07743354	-0.64252293	
-0.08677341	-0.3492804	0.06671159	
-0.65074956	-0.41156632	-0.036748633	
0.005572928	0.45455158	-0.13715658	
0.2913309	-0.26717454	-0.23640431	
0.58491147	-0.15060604	-0.15290569	
0.14067234	-0.33181575	-0.4554793	
-0.19261937	0.39553574	-0.4012926	
-0.32732025	0.3009469	0.14152002	
0.31372416	-0.30030957	0.36122632	
0.12621875	-0.3475436	-0.5314605	
-0.7115686	-0.47154438	-0.08084436	
-0.571038	0.096010655	0.1781592	
-0.49952793	-0.3682236	-0.8717164	
0.32750058	0.085253365	-0.34447956	
0.16041309	-0.40244615	-0.18174024	
0.7742827	-0.098257735	0.062891155	
-0.48968503	0.17838743	0.20165479	
-0.41382843	0.23616281	-0.02387625	
-0.4525928	-0.33334455	-0.030156998	
-0.79353267	-0.113315	0.23860899	
-0.4911189	-0.34049678	-0.02827267	
0.09859538	0.2012843	-0.53422076	
0.99833643	0.29190552	-0.067420766	
0.6300711	-0.20320751	0.042823616	
-0.34120858	-0.32463586	-0.027916275	
-0.11154091	-0.29303434	0.34907985	
-0.425237	-0.44561434	-0.17832726	
-0.4531016	0.25818107	-0.30277145	
-0.13779889	-0.5889807	-0.3574686	
0.20779832	0.06793279	0.64373946	
0.503199	0.4362234	0.21204287	
-0.11778278	-0.3013687	0.49780348	
0.15575294	-0.39768243	0.26082623	
0.121599235	-0.42756498	-0.18269941	
-0.47813994	-0.3186987	0.0016671568	
0.54172707	0.467968	0.10886115	
-0.7445166	-0.07111345	-0.5563859	
-0.86362815	-0.5579821	-0.3580132	
0.31359255	0.40664274	0.28045917	
-0.48246637	-0.25227872	0.15928343	
-0.053171918	0.38543573	0.26422036	
-0.70092547	0.06727727	-0.24638249	
0.5531026	-0.24970376	-0.0061924234	
-0.01333067	-0.31075698	0.5565794	
-0.45230496	-0.3329931	-0.030040536	
-0.4258473	-0.24599111	0.14568433	
-0.6773203	-0.0051683187	-0.5579733	
-0.5159222	-0.2518629	0.18314785	
-0.46999305	-0.4650538	-0.18682219	
0.32461858	-0.27969897	-0.19981569	
0.51765084	-0.224471	0.33162817	
-0.60009646	-0.6358882	-0.3828801	
0.34709203	0.23180361	0.4777447	
-0.43303537	0.15051669	0.4063062	
-0.6796408	-0.49939638	-0.14151	
-0.55387974	-0.3354247	0.014478061	
-0.4777761	-0.31820846	0.0017631548	
-0.5541525	-0.11539843	0.405824	
0.2536116	-0.38575044	-0.07269282	
-0.15099254	0.37490624	0.10189258	
-0.18637484	-0.27157524	0.5957831	
0.9772346	0.28793466	-0.1438948	
0.055858567	0.07764624	-0.6362739	
0.23045422	0.055414516	-0.42715096	
-0.9948322	-0.35711724	-0.24142417	
-0.2164307	0.35725573	0.18612128	
-0.57609427	0.16191958	-0.23649317	
-0.8972947	-0.5194926	-0.15285283	
-0.42617917	-0.24620749	0.14526075	
0.018348623	-0.18831459	-0.8083993	
-0.035160467	-0.32070437	0.5058681	
0.16947398	-0.015277673	0.7061899	
0.34611937	0.3087086	0.39789915	
-0.7015718	-0.4390425	-0.78636444	
0.020858265	0.46028963	-0.3115934	
-0.6866281	-0.27850714	0.23296025	
-0.428235	-0.25579703	-0.88212633	
0.5271739	-0.016208012	-0.25902873	
-0.6596223	-0.3021592	0.16468917	
-0.5088106	-0.41667768	-0.12258327	
-0.75190616	-0.476062	-0.055627532	
-0.43788716	-0.30236545	0.018948402	
0.29151312	-0.2674839	-0.23771901	
0.095317855	-0.40397292	-0.52714884	
0.14565964	-0.25324935	-0.6802645	
-0.5166695	-0.32318884	0.013736542	
-0.56545013	-0.23760763	0.2525007	
-0.57995343	0.05949173	-0.58760655	
-0.44874176	-0.087993786	0.5095834	
0.08859751	-0.41997808	-0.6266705	
-0.98610485	-0.34122342	-0.30507502	
0.12002605	-0.44039568	-0.10701527	
0.21079975	-0.31450218	-0.29175657	
-0.057885095	0.15963517	-0.6605786	
0.7267633	0.39067554	0.18191236	
0.17663024	0.3316242	-0.42195556	
-0.43775743	-0.3025376	0.018371813	
-0.49685752	0.06468344	0.41889814	
-0.037632212	-0.50507253	-0.18601081	
-0.6647769	-0.4464749	-0.08027378	
0.1501186	-0.38064146	-0.29777348	
-0.4083724	-0.2774423	0.062060326	
0.24538095	-0.37818664	-0.13635434	
-0.42607224	-0.24574327	0.14606214	
-0.4086894	-0.25360313	0.119301155	
-0.8008475	-0.08142318	-0.448227	
-0.55308044	-0.5389234	-0.84366393	
-0.49124128	-0.34022534	-0.027957879	
-0.5176237	-0.27334195	0.12421628	
0.5021846	0.4712023	0.07857994	
-0.3360387	-0.2480394	0.14511764	
0.51806676	0.08342265	-0.3020569	
-0.5251398	-0.23293559	0.24945912	
0.19669572	-0.26841593	-0.35133117	
0.06312737	0.33099014	0.4147926	
-0.48292494	-0.288068	0.06488194	
0.38992324	-0.34993982	0.11677215	
0.78045434	0.33209947	0.18934889	
0.26810178	-0.35440403	-0.16719532	
0.043783	-0.4657892	-0.45758808	
-0.482349	-0.2881774	0.06485359	
0.17760424	-0.30163616	0.46429068	
-0.81296146	-0.48254502	-0.02465528	
-0.4323787	0.2339809	-0.06438691	
-0.47800732	-0.31868216	0.0017582439	
0.014748022	0.04480263	-0.68880606	
-0.36136952	-0.25618747	0.11077559	
-0.34173104	0.35944495	-0.17515081	
0.025820747	0.32597524	-0.51423836	
-0.43728608	-0.2697239	0.08669184	
-0.7233461	-0.59459865	-0.28583124	
0.12495147	0.36271313	0.3659993	
-0.44044435	0.23023593	-0.41279784	
-0.41565758	0.27494228	-0.080511436	
-0.9061623	-0.14641738	-0.08664696	
-0.43720615	-0.2697727	0.086359985	
-0.42613333	-0.24635574	0.14421266	
-0.4376116	-0.269184	0.08707887	
0.7813965	-0.022520177	-0.22284484	
-0.6569657	-0.24754456	0.2681206	
-0.99616015	-0.38360754	-0.28537917	
-0.3360691	-0.24773452	0.14562283	
0.14908078	-0.31645992	-0.6122523	
-0.8360845	-0.46143675	0.03784273	
-0.4521364	-0.33314985	-0.030407634	
-0.17976451	-0.28407466	0.508075	
0.8057977	-0.04726445	0.09542381	
-0.26557562	-0.42371863	-0.8852606	
-0.4521485	-0.33289462	-0.03015741	
-0.47775343	-0.3183334	0.0020502694	
-0.4772485	-0.31857562	0.0025146753	
0.08913054	0.29604566	-0.50048923	
0.09253707	0.40022933	-0.42505547	
-0.19820079	-0.2589353	0.25797796	
-0.0066653783	-0.3760532	0.122758016	
-0.30575398	0.2996388	0.28845617	
-0.40786618	-0.2536286	0.11911421	
-0.6506621	-0.41154134	-0.037900463	
-0.18545057	0.120896816	-0.7168758	
-0.084606335	0.30965722	0.41493633	
0.03322933	0.15455607	-0.609046	
0.16565144	-0.06518477	-0.56955093	
0.08090052	-0.46609414	-0.14490236	
-0.14859168	0.37140495	0.24503048	
-0.4522547	-0.33327216	-0.029930998	
-0.4519828	-0.3327312	-0.029990215	
-0.30144385	-0.24281164	0.19541106	
-0.76857847	0.0009334497	-0.24751098	
0.06381807	-0.115363546	0.7589779	
-0.719791	-0.14436755	0.31186348	
-0.43727264	-0.26930958	0.08736527	
0.040837917	0.44494274	-0.38017938	
-0.17337471	-0.5424305	-0.8031196	
0.0646071	-0.43898374	-0.7016546	
0.07478975	0.46209046	-0.19104138	
-0.036323898	0.098059	-0.6877485	
-0.89585996	-0.17647006	-0.35093307	
-0.4274578	0.19083717	0.07213477	
-0.59158736	0.086832695	0.048768573	
-0.70367086	-0.31624037	0.17938498	
-0.49130008	-0.34024203	-0.027826719	
0.064633615	-0.045458555	0.7354889	
0.46239382	-0.2753697	0.2842934	
0.15015903	-0.38095152	-0.29812258	
-0.19609855	-0.3674097	-0.8899993	
-0.47050598	-0.46435112	-0.18636775	
0.41280192	0.1813699	0.4917631	
-0.49775195	-0.19932625	0.3497612	
-0.3524836	-0.35804808	-0.082084715	
-0.5127307	-0.57823086	-0.2860942	
0.39000177	-0.22821972	-0.19344321	
0.79120606	0.5072806	-0.08492279	
0.3147425	-0.10105932	-0.3083816	
-0.7141576	-0.50688565	-0.7693062	
-0.13454887	-0.13461487	0.7204944	
-0.4153702	-0.229782	0.20783104	
0.12153433	-0.4279362	-0.18217659	
0.34710842	0.02284507	-0.32159343	
-0.47823206	-0.36308423	-0.06513399	
-0.75237143	-0.48950127	-0.73805904	
0.53699625	-0.2746722	0.11172022	
-0.4383823	-0.3025302	0.019135475	
0.59334487	0.43994367	-0.21699771	
0.7065772	-0.120851025	0.23450965	
0.018034186	-0.4895379	-0.66031826	
-0.48501843	-0.65187305	-0.41431838	
-0.49109748	-0.34014064	-0.028210944	
0.009683559	0.4461769	-0.07154015	
-0.43721732	-0.26950067	0.086609975	
0.17941824	-0.3450166	-0.30732685	
0.015834685	0.462804	-0.26454574	
0.25470126	0.3235263	0.40864334	
-0.846614	-0.38332817	0.16071329	
-0.40848786	-0.2774879	0.06181614	
-0.490503	-0.34024632	-0.027872337	
-0.23100466	-0.12987503	0.6690423	
0.74754286	0.5127119	-0.040135927	
-0.2543703	0.33293366	0.24620831	
0.8810501	0.42092907	-0.17721081	
-0.5365424	0.11177411	-0.54129267	
-0.5038106	-0.15531008	0.41393548	
-0.17786339	-0.40853614	-0.8828086	
0.676324	0.36050034	-0.2705682	
-0.59097934	-0.3265755	0.062355228	
0.6752217	-0.17742293	0.10109965	
-0.3622371	-0.25688994	0.109443456	
0.47281474	0.47277534	0.043900676	
0.46137446	0.425469	-0.22081955	
0.52634823	0.48409224	0.0088790655	
-0.40590376	-0.05400132	-0.8098018	
-0.8332126	-0.05551791	-0.16580638	
-0.4082392	-0.2773181	0.062578805	
0.26700962	0.30760834	-0.37190318	
-0.46989056	-0.46454197	-0.18650562	
-0.968346	-0.28436276	-0.112989105	
-0.32999122	0.3555144	-0.27556413	
-0.6085417	0.1333049	-0.18013848	
-0.6054778	-0.24154824	0.25656193	
0.18891855	-0.36898553	-0.24187508	
0.34808826	-0.17532599	-0.2543538	
-0.16974264	0.20621197	-0.653638	
-0.6626023	-0.62769115	-0.3828239	
-0.4261467	-0.24604532	0.14585583	
0.71616447	-0.07154326	-0.19421804	
-0.17574507	-0.5815948	-0.3234424	
0.4254796	-0.3112136	-0.056441367	
-0.27480033	0.30059737	0.3217705	
0.6818878	0.0144632235	-0.28044617	
-0.36166248	-0.25637805	0.110557534	
-0.5291053	0.19429605	-0.30864227	
-0.6624172	-0.5927408	-0.27623552	
-0.49085006	-0.34040862	-0.028020833	
0.23803782	-0.2988561	0.41941336	
0.5299598	0.21884206	0.39000472	
-0.4779542	-0.31849292	0.0016551986	
0.65430796	-0.1891824	0.063021906	
-0.534645	0.12522045	-0.015687706	
0.97239864	0.16866866	-0.06578289	
0.12159652	-0.35035586	0.3908614	
0.7017464	0.4097815	-0.24200591	
-0.9632189	-0.47273698	-0.37925887	
0.14679652	-0.28556108	0.53346354	
0.15927818	-0.4033538	-0.18166895	
0.6450736	0.39743814	-0.25115752	
-0.52507854	-0.12433061	-0.80848813	
0.111709476	0.05636239	-0.59194005	
0.013486873	0.42366552	-0.43263027	
-0.49144116	-0.16078693	-0.83738285	
-0.37144452	0.24229984	0.075185396	
0.46309707	-0.26178592	-0.103004515	
-0.4774254	-0.31872088	0.0015221238	
-0.43753192	-0.2693647	0.08720501	
-0.47810423	-0.31860185	0.0013572397	
0.18831098	-0.26823863	0.53843194	
0.28553355	-0.38763928	0.0786782	
-0.33835468	-0.22168374	0.39235842	
0.37155616	-0.3473185	0.19016221	
0.12566409	0.16125013	-0.5210142	
-0.32447633	0.19572964	-0.61171645	
0.12561055	-0.31207457	0.48633894	
-0.4783326	-0.3626542	-0.064352036	
-0.32603055	0.3691405	-0.1322698	
-0.77346694	0.0033191144	-0.18889332	
-0.43676156	-0.26933157	0.086649284	
-0.437518	-0.26977593	0.08661616	
0.386424	0.4205494	-0.2358289	
-0.40829575	-0.27702466	0.06233496	
-0.11325404	0.0154584665	0.6852342	
-0.21445392	-0.25264198	0.3060884	
-0.08744826	-0.085512005	-0.8166448	
-0.5643412	0.10331614	0.113561586	
-0.0054521635	-0.5199687	-0.44294643	
-0.24221396	-0.22371441	0.6175071	
-0.661174	-0.59179723	-0.27571505	
0.04638543	-0.49317944	-0.2600745	
-0.45198172	-0.33276302	-0.029726733	
-0.7005404	-0.621703	-0.7071755	
-0.6325277	0.07951186	-0.44113934	
-0.44843963	0.12810725	-0.61107713	
-0.23314923	0.30547008	0.34164304	
-0.8796746	-0.2233487	0.16278583	
-0.4909233	-0.33997065	-0.027893808	
-0.40703955	0.31230807	-0.18928517	
0.18429112	0.3535335	0.37687418	
-0.047183778	-0.31824204	-0.85568917	
-0.6349733	0.012154158	0.28063273	
-0.14301401	-0.06761052	-0.8221866	
0.4242899	-0.31046352	-0.05707161	
-0.478088	-0.3187351	0.00154908	
-0.47824556	-0.31905103	0.0017032139	
0.83278847	-0.049550027	-0.050375983	
-0.21766557	0.4240075	-0.19683582	
0.011399455	0.39404768	0.2810329	
0.16881043	-0.40495822	-0.12696554	
0.40778705	0.0015959265	-0.29011688	
-0.51415044	0.21314844	-0.21826875	
0.22801389	-0.07532156	-0.4115749	
-0.55946815	-0.44055596	-0.13063936	
-0.4779445	-0.36291742	-0.063987374	
-0.25540823	0.39407066	-0.075450495	
0.015433788	-0.29195607	0.60956705	
0.5147346	-0.13262385	-0.20450012	
0.5950722	0.17440581	0.37378728	
-0.4911741	-0.34055763	-0.028414764	
0.9968275	0.23741314	-0.033751585	
0.04288038	-0.46742594	-0.616006	
-0.43762028	-0.26986372	0.08650047	
-0.11604739	-0.42565912	-0.11490922	
-0.4781514	-0.31870627	0.001719147	
-0.35822278	0.25114515	0.3422985	
0.121376514	-0.42779952	-0.18298095	
-0.47739014	-0.318668	0.001539506	
-0.38240138	-0.3790471	-0.108963765	
0.20156169	-0.38754874	-0.16401872	
-0.09282116	-0.47987777	-0.8276822	
0.3834677	0.47045356	-0.029124752	
0.44218156	-0.18557297	-0.19852479	
-0.14709678	0.23941272	0.4840386	
0.24762991	-0.35656962	0.30793664	
-0.14119741	0.3311844	0.3533997	
-0.2569966	0.078709505	-0.7427745	
-0.4780597	-0.3630164	-0.064797476	
-0.4911162	-0.34029567	-0.028065804	
-0.6980799	-0.036873635	0.26274812	
-0.74928683	-0.6136476	-0.54303455	
-0.37444797	-0.6631783	-0.644544	
-0.023028277	-0.45331067	-0.08542985	
-0.47643873	0.16791977	-0.030640036	
-0.6504655	-0.4118991	-0.03747043	
-0.04103739	-0.55754226	-0.33960885	
-0.70412356	-0.15119465	-0.7032366	
-0.027029522	-0.0011495501	0.70987284	
-0.40786904	0.302566	-0.12585022	
0.35619354	0.394319	0.29423636	
0.50902355	-0.28237578	0.00016791606	
-0.49046332	-0.3403036	-0.028512951	
-0.018369	0.19268852	0.5683263	
-0.4917805	-0.34076178	-0.028472524	
-0.5518011	-0.6631986	-0.48491597	
-0.62118727	-0.1742669	0.34934664	
0.5685922	0.00571879	-0.2703049	
-0.5166762	-0.32383898	0.012771603	
0.47865754	0.19457017	0.44322443	
-0.47771606	-0.31861115	0.0015423968	
-0.6554711	0.06995516	-0.032571148	
0.04422863	-0.31022114	0.5513211	
0.3329914	-0.37024742	0.009283353	
-0.6336062	0.051546607	-0.5142689	
-0.49192423	-0.34072113	-0.02827619	
0.65632665	-0.12733495	0.32670027	
-0.33678275	-0.3934589	-0.12880819	
-0.9305396	-0.30828425	0.039403178	
0.34673053	-0.2422496	0.4656529	
0.0824828	0.14276387	0.6176796	
-0.3751695	-0.4133798	-0.15020904	
0.15945244	-0.19687888	0.71921253	
0.33765087	0.4686119	-0.12885134	
-0.28039283	-0.23951323	0.41443205	
-0.28004318	-0.42814857	-0.16617228	
-0.4378118	-0.3019141	0.01911288	
0.20545569	0.46253243	-0.12891766	
-0.18208249	0.27111697	-0.5920869	
-0.91766083	-0.23651598	-0.42390293	
-0.5158589	-0.3228858	0.014097042	
-0.25162697	-0.6060387	-0.7420069	
-0.38843077	-0.23791583	0.17001316	
-0.8883015	-0.44743988	0.0366076	
0.120660946	-0.42778832	-0.18257168	
0.18668261	0.38937753	0.3141886	
-0.29394588	-0.2965841	0.033805072	
0.29568967	0.01970756	-0.3555783	
0.69919515	0.21521345	0.2722282	
-0.45214838	-0.33320174	-0.030410938	
-0.11011193	0.43577364	-0.07988696	
-0.5341278	-0.30258894	0.06529792	
-0.4373325	-0.26968196	0.0865818	
-0.4907162	-0.34081486	-0.029174322	
0.24492793	0.0965206	0.6130749	
-0.42507425	-0.44537413	-0.17846972	
-0.35354382	-0.35864526	-0.08320837	
-0.5911045	0.057869222	0.27894968	
0.44884676	-0.3154149	0.1856674	
-0.16757195	-0.26916498	0.26109833	
0.9854202	0.21987133	-0.11423522	
0.5483812	0.11375904	0.46766192	
0.6541742	0.1424385	-0.32400602	
-0.6117902	-0.5048133	-0.17802092	
-0.45809036	0.20483051	0.26848298	
0.35072547	-0.088594414	-0.29157358	
0.032538176	-0.38679335	0.16542703	
-0.59075546	-0.32579082	0.06349036	
0.41462892	-0.26372245	-0.13954337	
-0.49054447	-0.34015554	-0.02831744	
0.06937693	-0.19047357	0.75081325	
-0.86629635	-0.13625628	0.119128786	
-0.17656562	0.30363157	0.38197917	
0.33650047	-0.23630866	-0.22582135	
-0.22051242	0.33262873	0.29186165	
-0.5377413	-0.6717448	-0.65368056	
-0.3876551	0.26426882	0.25592893	
-0.039265517	-0.23388094	0.72470343	
-0.16313158	-0.10028468	-0.8408459	
-0.058677956	0.038759924	-0.7368761	
0.16564858	-0.27270478	-0.43654707	
0.15924531	0.4614801	-0.10336116	
-0.06226673	-0.54950094	-0.2707552	
-0.03195548	0.4253082	-0.00068033487	
-0.51918733	0.005372174	-0.71764874	
-0.47819102	-0.318918	0.0015936121	
-0.49861526	0.022661254	0.44603372	
0.0024894755	-0.27712715	-0.8301381	
-0.16026452	0.37041837	0.21067694	
0.45734105	-0.24802862	0.34324265	
-0.4785537	-0.36276516	-0.06451972	
-0.037285455	-0.06220479	-0.7848635	
0.0017585158	0.40935364	0.12576517	
-0.090586744	-0.57234657	-0.31982428	
-0.09406401	-0.58189994	-0.42622626	
-0.4776694	-0.3188303	0.0014780387	
-0.14449307	-0.5738154	-0.30916396	
0.7526113	0.17810562	0.24522267	
-0.36246508	-0.25747138	0.10918702	
-0.68095857	-0.4998026	-0.14121228	
-0.7634411	0.020561622	-0.110578276	
-0.6645535	-0.44621286	-0.080287345	
-0.7165766	-0.61263937	-0.3616684	
-0.8003664	-0.011629462	-0.12093732	
0.23741403	-0.12555987	-0.36585775	
0.26510978	0.4647496	-0.07986832	
-0.3358326	-0.24774079	0.14585286	
-0.75066316	0.013171835	-0.3054499	
0.121006064	-0.42817086	-0.18263757	
-0.43701577	-0.26902863	0.08775601	
0.12010831	-0.43975955	-0.105930105	
0.6715318	-0.1748479	0.037727512	
-0.96610194	-0.27880943	-0.27467847	
-0.3123724	-0.1693747	0.60136545	
-0.6641274	-0.44618708	-0.079885006	
0.2792247	-0.092887394	-0.33792686	
-0.9660454	-0.40588227	-0.4512119	
0.04862944	0.43864375	-0.010811754	
-0.5531208	-0.26602072	0.1692273	
-0.15236267	-0.3796862	-0.88152325	
-0.7656342	-0.4131279	-0.7354447	
-0.438781	0.21865188	0.18975183	
-0.16795841	0.42716002	-0.3019845	
-0.52709794	0.093064226	-0.5924529	
0.08127856	-0.45180613	-0.26593283	
0.2502865	-0.12613027	0.7377674	
-0.45206773	-0.33291942	-0.030271273	
-0.40815789	-0.25331542	0.11933182	
-0.6029689	-0.5603699	-0.8226242	
0.40251198	0.075534284	0.5792294	
-0.4781178	-0.31873775	0.001675725	
-0.65016925	-0.41245723	-0.037689894	
0.50535226	-0.29338467	0.07228303	
